0.0948374372174 -0.882689395478  0.144350611972 1714053197.63
 0.117132403371 -0.989916293372  0.155218556971 1714053197.68
0.130066330295 -1.09047089647 0.168765256123 1714053197.7
0.132080190814 -1.18332735118  0.18651506175 1714053197.72
0.123191242486 -1.26832746942 0.209442057201 1714053197.73
0.105047081693  -1.3459428279 0.237741052236 1714053197.78
0.0806701965037  -1.41689453769  0.270733078563 1714053197.8
0.0539196336967  -1.48173061279  0.306915507484 1714053197.81
0.0287601569743  -1.54046806972  0.344137695595 1714053197.83
0.00847735072873   -1.59238442867   0.379862220369 1714053197.88
-0.00500188459514    -1.63599846744    0.411463033287 1714053197.89
-0.01153551763 -1.66922767934 0.436514814771 1714053197.91
-0.0128343583946   -1.68966674664   0.453038887407 1714053197.93
-0.0121347021684   -1.69490951457   0.459685178106 1714053197.98
-0.013519280975   -1.6828394975  0.455842159442 1714053197.99
-0.0210081746114   -1.65183556938   0.441674544158 1714053198.01
-0.0375992616352   -1.60087038401   0.418091593946 1714053198.03
-0.0644605826165   -1.52950912742   0.386649545239 1714053198.08
-0.100456430081  -1.43783795927  0.349393178737 1714053198.09
-0.142126854209  -1.32636141005   0.30864627281 1714053198.11
-0.184148613472   -1.1959061607  0.266768322724 1714053198.13
-0.220203913401  -1.04755772246   0.22590266499 1714053198.18
-0.244093942783 -0.882640882105  0.187745456645 1714053198.19
-0.250877559578 -0.702739410876  0.153363872603 1714053198.21
-0.237805394759 -0.509739742697  0.123086112162 1714053198.23
-0.204860086272 -0.305879177518 0.0964777371846 1714053198.28
 -0.154796368753 -0.0937810453693  0.0724106345031 1714053198.3
-0.092681312397    0.1235354137 0.0492231224278 1714053198.32
-0.025039572262  0.342677247162  0.024961580418 1714053198.33
  0.0412138026345    0.559935822894 -0.00231574650547 1714053198.38
 0.0998367062765   0.771384187374 -0.0342036999225 1714053198.4
  0.146118467239   0.973017462703 -0.0716266770567 1714053198.42
  0.17738998226   1.16093722351 -0.114578024801 1714053198.44
 0.193125783399   1.33157292209 -0.161975098425 1714053198.49
 0.194667864591   1.48192165726 -0.211673447706 1714053198.5
 0.184675617201   1.60977623246 -0.260662507179 1714053198.52
 0.166449590412   1.71390568545 -0.305433863476 1714053198.54
 0.143281509164   1.79415528019 -0.342476365386 1714053198.59
 0.117952109357   1.85144335307 -0.368817818996 1714053198.61
0.0924441958141   1.88764623738 -0.382510686014 1714053198.63
0.0678782394717   1.90537532838 -0.382958640489 1714053198.64
  0.04462849928   1.90766061248 -0.371007355554 1714053198.69
 0.022549898269   1.89756482288 -0.348773709828 1714053198.71
0.00124181727896    1.87776521379  -0.319250437158 1714053198.73
-0.0197112163119    1.85015607104     -0.285779214 1714053198.74
-0.0405600225669    1.81553918121  -0.251515724997 1714053198.79
-0.0612891305244    1.77347269721  -0.219004982061 1714053198.81
-0.0815932258019    1.72233387202  -0.189946478242 1714053198.83
-0.100920426801   1.65961641076 -0.165170610891 1714053198.84
-0.118562893179   1.58243413161 -0.144789748335 1714053198.89
-0.133769484125   1.48815094797 -0.128446947657 1714053198.91
 -0.14585311503   1.37501846055 -0.115572720818 1714053198.92
-0.154269270841   1.24269090175  -0.10557577365 1714053198.94
 -0.158652579735    1.09250914207 -0.0979291874982 1714053198.99
 -0.158813119405   0.927495931433 -0.0921558839531 1714053199.01
 -0.154708077965   0.752069238251 -0.0877525502494 1714053199.02
 -0.146411699509    0.57154153463 -0.0841091566001 1714053199.04
 -0.134103518846   0.391514158098 -0.0804777591151 1714053199.09
 -0.118082436949   0.217287628828 -0.0760224377432 1714053199.11
-0.0987972585398  0.0533899948921 -0.0699502619543 1714053199.12
-0.0768702456555 -0.0967161316045  -0.061691491918 1714053199.13
-0.0530855880319  -0.230737223817 -0.0510749572291 1714053199.19
-0.028322617745 -0.347496144981 -0.038437469102 1714053199.2
-0.00343270718259   -0.446781742246  -0.0246160520103 1714053199.22
 0.0209165321204  -0.529162181639 -0.0107971502129 1714053199.23
 0.0443842231594  -0.595806104846 0.00176665242421 1714053199.28
0.0670304015583 -0.648327402714 0.0121216028206 1714053199.3
0.0892726871486 -0.688642993921 0.0199741249122 1714053199.31
 0.111702875214 -0.718819865546 0.0259451992266 1714053199.33
 0.134780715579 -0.740892928747 0.0316219361626 1714053199.38
 0.158464987669 -0.756655714766 0.0393472888266 1714053199.4
 0.181874581209 -0.767451600708 0.0517505310912 1714053199.41
 0.203083074493 -0.774011812812 0.0710944588303 1714053199.43
 0.219133175643 -0.776388455085 0.0985804269234 1714053199.48
 0.226313977104 -0.774013702558  0.133788065823 1714053199.5
 0.220683589661 -0.765885610723    0.1744170132 1714053199.51
 0.198757165278 -0.750847687741  0.216439185766 1714053199.53
 0.158231985265 -0.727904776186  0.254673083205 1714053199.58
0.0986006843421 -0.696509182401  0.283681206858 1714053199.59
0.0215175455525 -0.656759868125  0.298799842716 1714053199.61
-0.0691709499203  -0.609480093679   0.297065859618 1714053199.63
-0.167751952745 -0.556167831565  0.277822860844 1714053199.68
-0.267274911757 -0.498840140035  0.242864836767 1714053199.69
-0.360366564567 -0.439810714631  0.196087730983 1714053199.71
-0.440078370856 -0.381445736438  0.142736731312 1714053199.73
-0.500609285512 -0.325937583386 0.0884287154632 1714053199.78
-0.537778772183 -0.275122915256 0.0381730180732 1714053199.8
  -0.549185579135   -0.230356772642 -0.00439887741251 1714053199.81
 -0.534063829804  -0.192442856948 -0.0374465840113 1714053199.83
 -0.492921781433  -0.161614728825 -0.0609223923059 1714053199.88
 -0.427101355003  -0.137562608736 -0.0762055152464 1714053199.9
 -0.338412581801  -0.119502772634 -0.0854926450483 1714053199.91
 -0.228968867852  -0.106287703704 -0.0911108034632 1714053199.93
-0.101280880522 -0.096552840353 -0.094917899112 1714053199.98
 0.0414238684272 -0.0888896404322 -0.0979183085642 1714053200
  0.194775914616 -0.0820265172655  -0.100158552648 1714053200.01
  0.352909943354 -0.0749921404141  -0.100898504472 1714053200.03
  0.508365202091  -0.067233052569 -0.0989921741785 1714053200.08
  0.652374002163 -0.0586619501762 -0.0933702019154 1714053200.1
  0.775577700747 -0.0496245903271 -0.0834993234431 1714053200.11
  0.869094206335  -0.040789726596 -0.0697028524269 1714053200.13
  0.925755762961  -0.032983211355 -0.0532577368478 1714053200.18
   0.94126988415 -0.0269993952647 -0.0362324262428 1714053200.2
  0.915049693015  -0.023426669878 -0.0210876059968 1714053200.21
  0.850517914167 -0.0225187605725 -0.0101188150329 1714053200.23
   0.754800178583  -0.0241314745133 -0.00486521155723 1714053200.28
   0.637861467156  -0.0277302045011 -0.00563181439805 1714053200.3
  0.511267089485 -0.0324608503194 -0.0112646720923 1714053200.31
  0.386828203554 -0.0372686441005 -0.0192749869985 1714053200.33
   0.27539534007 -0.0410460034109 -0.0263324700501 1714053200.38
  0.185989531644  -0.042790449416 -0.0290540521424 1714053200.4
 0.125335048371 -0.041754737435 -0.024925035474 1714053200.41
 0.0977255821707 -0.0375723576788 -0.0131325232888 1714053200.43
  0.105064395851  -0.030342556451 0.00491391467127 1714053200.48
  0.146899534583 -0.0206611295853  0.0255452205914 1714053200.5
   0.220331176265 -0.00958764551815   0.0433470827084 1714053200.52
  0.319775776716 0.00145329406236  0.0521643870247 1714053200.53
 0.436690301205 0.0108306885127 0.0464117804146 1714053200.58
 0.559447545389 0.0169112308013 0.0224191539578 1714053200.6
  0.673580492704  0.0182871684726 -0.0204876735649 1714053200.62
  0.762569426805  0.0140001549462 -0.0794314717608 1714053200.63
   0.80923934019 0.00372830281504  -0.148112964847 1714053200.68
  0.797691318449 -0.0120991470102  -0.217643346975 1714053200.7
  0.715543062547 -0.0322927845626  -0.277946965202 1714053200.71
 0.556135802023 -0.055021709258 -0.319474025082 1714053200.73
  0.320307967669 -0.0780601109595  -0.334890173142 1714053200.78
 0.0173583006115 -0.0991316962098  -0.320409451712 1714053200.8
 -0.33507684085 -0.116291018725 -0.276510254524 1714053200.82
-0.71234255072 -0.12826013062 -0.20790225893 1714053200.83
 -1.08519386415 -0.134638245951  -0.12276379718 1714053200.88
  -1.42305125559  -0.135925379699 -0.0314085183556 1714053200.9
 -1.69764197192 -0.133344421068  0.055360393616 1714053200.92
 -1.88649441868 -0.128498760106  0.127906004231 1714053200.93
 -1.97574985815 -0.122949120678  0.179135086576 1714053200.98
 -1.96184746142 -0.117818946535  0.205374628649 1714053201
 -1.85181175397 -0.113533495658  0.206627428672 1714053201.02
 -1.66209466366 -0.109763665171  0.186205787554 1714053201.03
 -1.41615717566 -0.105590551194  0.149854562172 1714053201.08
  -1.14117724021 -0.0998461243493   0.104559902194 1714053201.1
 -0.864406534746 -0.0915361162429  0.0572838753446 1714053201.12
 -0.609744480813 -0.0802271342994  0.0138619884476 1714053201.13
 -0.395043124802 -0.0662881536457 -0.0217476160976 1714053201.18
 -0.230509594282 -0.0509149755261 -0.0477580457996 1714053201.2
-0.118363372161 -0.035924505609 -0.064387101164 1714053201.22
-0.0536790166199 -0.0233675895473 -0.0733240927081 1714053201.23
-0.0261501160756 -0.0150575229051 -0.0769939533572 1714053201.28
-0.0223853614356 -0.0121332929164  -0.077809325889 1714053201.3
-0.0283102334409 -0.0147669399896 -0.0775808514749 1714053201.32
-0.0312928151124 -0.0220867537771  -0.077197556747 1714053201.33
-0.0217168171138 -0.0323332476453 -0.0766115882257 1714053201.38
0.00614216164155 -0.0432078978676 -0.0750856541478 1714053201.4
 0.0539496546043 -0.0523302055857 -0.0716047823044 1714053201.42
  0.119758883494 -0.0576972861437 -0.0653264857781 1714053201.43
   0.19890150414 -0.0580457082042 -0.0559473438022 1714053201.48
  0.285117074995 -0.0530442660095 -0.0438949681092 1714053201.5
  0.371714510157 -0.0432896874755 -0.0303034178189 1714053201.52
  0.452586973845   -0.03012313483 -0.0167859380785 1714053201.53
   0.522952295383  -0.0153224822491 -0.00506930207795 1714053201.59
     0.57975520271 -0.000745821405398   0.00341217420322 1714053201.6
  0.621734713278  0.0119975550424 0.00785601209129 1714053201.62
  0.649218074017  0.0217891314377 0.00827638621941 1714053201.63
  0.663741051388  0.0281243355704 0.00548869153408 1714053201.69
    0.66760645971   0.0311153897361 0.000902026027501 1714053201.7
   0.663478155443   0.0313968348577 -0.00382233222885 1714053201.72
   0.654072643986   0.0299699340637 -0.00715644751907 1714053201.73
   0.641966229781   0.0280227502277 -0.00803924267723 1714053201.79
   0.629495098655   0.0267534343844 -0.00608158410233 1714053201.8
    0.61869950366   0.0272108793283 -0.00160389266947 1714053201.82
  0.611257178258  0.0301560095192 0.00448948705964 1714053201.83
  0.60836530441 0.0359436994766  0.010957541808 1714053201.89
 0.610559771326 0.0444311118957  0.016526573699 1714053201.9
 0.617496508919  0.054930051448 0.0201799841951 1714053201.92
  0.62775220861 0.0662319643322 0.0213726149405 1714053201.93
 0.638721011749 0.0767364436604 0.0201292463472 1714053201.99
  0.64668255838  0.084701518757 0.0170131424818 1714053202
 0.647092479765 0.0886056564487 0.0129768668088 1714053202.02
  0.63510207284 0.0875729559406 0.0091296831635 1714053202.03
  0.606258295829  0.0817759499343 0.00647075433001 1714053202.09
  0.557281317577  0.0727086628457 0.00564341233506 1714053202.1
   0.48677889751  0.0632276627978 0.00676242528293 1714053202.12
  0.395746850738  0.0572953573627 0.00935364787287 1714053202.13
 0.287729059297 0.0594227357779 0.0124247567487 1714053202.19
 0.168567191305 0.0738839749225  0.014659307862 1714053202.2
 0.045749152632  0.103842916024 0.0146984499245 1714053202.22
-0.0725508179291   0.150571486122  0.0114515288808 1714053202.23
 -0.178578364844   0.212938925044 0.00436530551693 1714053202.29
  -0.266052245133    0.287305117369 -0.00641348016768 1714053202.3
 -0.330970001142    0.36787048745 -0.0200251087813 1714053202.32
 -0.372018947927   0.447437901432 -0.0350409562205 1714053202.34
 -0.390526323008   0.518452917677 -0.0497324546164 1714053202.39
 -0.389978978304   0.574129873777 -0.0623998777603 1714053202.4
 -0.375231769479   0.609456742813 -0.0716802303949 1714053202.42
 -0.351582322566   0.621902994747 -0.0767610403202 1714053202.44
 -0.323903639471   0.611720902302 -0.0774560838728 1714053202.49
 -0.295993660736   0.581812793531 -0.0741406442654 1714053202.51
 -0.270234595536   0.537214487507 -0.0675835912071 1714053202.52
 -0.247575615556   0.484303374129 -0.0587379085603 1714053202.54
-0.227782699813  0.429871146145 -0.048553032668 1714053202.59
 -0.209855217434   0.380206487724 -0.0378531952102 1714053202.61
-0.192496124338  0.340317375319 -0.027295352822 1714053202.62
 -0.174537080567   0.313392754842 -0.0173910510846 1714053202.64
  -0.155250547933    0.300564654587 -0.00855934278936 1714053202.69
   -0.13451603927    0.300987789773 -0.00117690486394 1714053202.71
 -0.112838439751   0.312207364102 0.00439638395643 1714053202.72
-0.0912389616665   0.330741443042 0.00782105204622 1714053202.74
 -0.071054025371   0.352768654386 0.00880201744962 1714053202.79
-0.0536858109973   0.374793052207 0.00711926057053 1714053202.81
-0.0403512357998   0.394162354825 0.00265479885335 1714053202.82
-0.0318730958679   0.409345497429 -0.0045875035113 1714053202.84
-0.0285471745552   0.419926133609 -0.0144676080416 1714053202.89
-0.0301028377363    0.42632998643 -0.0266983994793 1714053202.91
-0.0357550025637   0.429362006557 -0.0408397520911 1714053202.92
-0.0443271661293   0.429670477557 -0.0563031077414 1714053202.94
-0.0544131933877   0.427269336189 -0.0723727197305 1714053202.99
-0.0645426581128    0.42123315091 -0.0882453633054 1714053203.01
-0.0733205928871    0.40963545711  -0.103082552657 1714053203.02
-0.0795246812223   0.389741931669  -0.116061941771 1714053203.04
-0.0821570117232   0.358410980807  -0.126411713628 1714053203.09
-0.0804596673675   0.312611079869  -0.133415825574 1714053203.11
-0.0739112131517   0.249946896104  -0.136388703901 1714053203.12
-0.0622235748506   0.169096895602  -0.134632373236 1714053203.14
-0.0453557861454  0.0700972653939  -0.127402265106 1714053203.19
-0.0235531314861 -0.0455518028738    -0.1139149834 1714053203.21
0.00259144884119  -0.174944564055 -0.0934283912912 1714053203.22
 0.0320699993421  -0.313957321991 -0.0654104024816 1714053203.23
 0.0634140343752  -0.457524629747 -0.0297896650416 1714053203.28
0.0947047035319 -0.599973362801 0.0127466742483 1714053203.3
 0.123669631072 -0.735400761819 0.0604695792943 1714053203.32
 0.147883863375 -0.858096109671  0.110418769381 1714053203.33
 0.165069009712 -0.963006666096  0.158389914247 1714053203.38
0.173455831898 -1.04623237341 0.199163319217 1714053203.4
0.172148473883 -1.10550415695 0.226999966493 1714053203.42
0.161411691378 -1.14056866809 0.236374891268 1714053203.43
0.142802919125 -1.15338334751 0.222855912196 1714053203.48
0.119091949297 -1.14803328337 0.183982825677 1714053203.5
0.0939501510325   -1.1303216674  0.119974208195 1714053203.51
0.0714409340733  -1.10705335494 0.0340977650148 1714053203.53
0.0553919895022  -1.08510867486 -0.067411172774 1714053203.58
0.0487648121159   -1.0704676016 -0.175917830747 1714053203.6
0.0531473340595  -1.06737018071 -0.281382821698 1714053203.61
0.0684761156329  -1.07777648299 -0.373636593346 1714053203.63
0.0930484440654  -1.10122324617 -0.443727226161 1714053203.68
 0.123822683346  -1.13508432625 -0.485116135595 1714053203.7
 0.156942833569  -1.17515525957 -0.494519943484 1714053203.71
 0.188376152053  -1.21642298068 -0.472258023369 1714053203.73
 0.214532290511  -1.25386272142 -0.422052675429 1714053203.78
 0.232743110883  -1.28312345626 -0.350326920931 1714053203.8
  0.24152069493  -1.30100825821 -0.265135117969 1714053203.81
 0.240566856068  -1.30570987031 -0.174925597662 1714053203.83
  0.230566493993    -1.2968100637 -0.0873582101754 1714053203.88
   0.212844817228    -1.27508528957 -0.00837754418331 1714053203.9
 0.188993266787  -1.24217907568 0.0583200417646 1714053203.91
0.160564991659  -1.2002068089 0.111375400007 1714053203.93
0.128909242505 -1.15135532663  0.15145368777 1714053203.98
0.0951640120644  -1.09753092109  0.180647049322 1714053204
0.0603727475856  -1.04009619487  0.201752930034 1714053204.02
0.0256510539666 -0.979719786196  0.217590975094 1714053204.03
-0.00768386286454   -0.916345173045    0.230488013118 1714053204.08
-0.0380906422104  -0.849268189538    0.24200272064 1714053204.1
-0.0639162770701  -0.777300294719   0.252896016826 1714053204.12
-0.0836219872578  -0.698987884455   0.263296819123 1714053204.13
-0.0960602108736  -0.612856998676   0.272977635071 1714053204.18
-0.100722270327 -0.517655563709  0.281645483195 1714053204.2
-0.0978842972634  -0.412568851501   0.289168577989 1714053204.22
-0.0886079607335   -0.29738617055   0.295690689617 1714053204.23
-0.0745915525479  -0.172598349327   0.301623331246 1714053204.28
-0.0579042261966 -0.0394090372858   0.307541403857 1714053204.3
-0.0406624607353   0.100348512745   0.314033178743 1714053204.32
-0.0247182042291   0.244382459663   0.321565858933 1714053204.33
-0.0114220659782   0.390175624315   0.330421543558 1714053204.38
-0.00150526567835    0.535239071901    0.340736183065 1714053204.4
0.00490411328654   0.677337608885   0.352640342745 1714053204.42
0.00814568349753    0.81464660128   0.366463037474 1714053204.44
0.00881438310794   0.945820321125   0.382928672077 1714053204.49
0.00753148620464     1.0699782397   0.403262295779 1714053204.5
0.00476373151279    1.18663664573   0.429127105033 1714053204.52
0.000743673300855     1.29562004331    0.462352152501 1714053204.54
-0.00448225916912     1.39697776386    0.504462467256 1714053204.59
-0.0108877317621    1.49091161292   0.556086457494 1714053204.61
-0.0182290721055    1.57770101661   0.616369940541 1714053204.62
-0.0258100019733    1.65760425266   0.682554836853 1714053204.64
-0.0323304612355    1.73072402316   0.749870125228 1714053204.69
-0.035886887753   1.79685020389  0.811829225363 1714053204.7
-0.0341560060252    1.85532104566   0.860940441312 1714053204.72
-0.024746756444   1.90496153362  0.889736419766 1714053204.74
-0.00565835427991     1.94415230241    0.891942371293 1714053204.79
0.0242502733768   1.97105190667  0.863556567564 1714053204.8
0.0648842115096   1.98394791718  0.803624841025 1714053204.82
0.114718548178   1.9816647299 0.714551734391 1714053204.84
0.170839638085  1.96392587262 0.601887374361 1714053204.89
0.229227066453  1.93156792122 0.473634678415 1714053204.9
0.285233611694  1.88653348811 0.339209593355 1714053204.92
0.334181999079  1.83162309307 0.208239227895 1714053204.94
 0.371975945137   1.77004470343 0.0893929394341 1714053204.99
 0.395622618777    1.7048500567 -0.010584685535 1714053205.01
  0.403583388153    1.63837781902 -0.0875198380786 1714053205.02
 0.395904596801   1.57182938089 -0.140075032775 1714053205.04
 0.374122197199   1.50508129409 -0.169633236484 1714053205.09
 0.340974328343   1.43679035827 -0.179850062765 1714053205.11
 0.299986180791   1.36478047416 -0.175962379557 1714053205.12
 0.255006210409   1.28662902559 -0.163967007133 1714053205.14
 0.209770298876   1.20031396441 -0.149793132732 1714053205.19
 0.167553393159   1.10475949487 -0.138584841266 1714053205.2
 0.130942317871   1.00013935007 -0.134185409507 1714053205.22
0.101735874879 0.887859959665  -0.1388756532 1714053205.24
0.0809550990614  0.770234258581 -0.153371632228 1714053205.29
0.0689315257602  0.649943197038 -0.177042294278 1714053205.3
0.0654361331872  0.529438607377 -0.208275031536 1714053205.32
0.0698158071133  0.410450564243 -0.244903056797 1714053205.34
0.0811153959987  0.293723652427 -0.284613829997 1714053205.38
0.0981776694946  0.179034466695 -0.325278009378 1714053205.4
 0.119725923558 0.0654618340499 -0.365165993955 1714053205.41
  0.144440450096 -0.0481831603755  -0.403046298922 1714053205.43
 0.171038728774 -0.162891252172 -0.438181111229 1714053205.48
 0.198361204431 -0.279070637826 -0.470246956148 1714053205.5
 0.225453805341 -0.396325989472 -0.499212921734 1714053205.51
 0.251630065769 -0.513433177829 -0.525207372764 1714053205.53
 0.276494035384 -0.628494496084 -0.548398679878 1714053205.58
 0.299911523045 -0.739224626959 -0.568907686464 1714053205.6
 0.321929750545 -0.843300313458 -0.586760362621 1714053205.61
 0.342659886215 -0.938705026837 -0.601879140229 1714053205.63
 0.362148219045  -1.02400901363 -0.614101912329 1714053205.68
 0.380266076284   -1.0985402065 -0.623210514925 1714053205.7
 0.396644587014    -1.162420149 -0.628948272871 1714053205.71
 0.410669528586  -1.21646080095 -0.631010969665 1714053205.72
 0.421537357389  -1.26194210236 -0.629007230827 1714053205.78
 0.428360251213  -1.30031370793 -0.622399551453 1714053205.8
 0.430298743152  -1.33288248866 -0.610450703957 1714053205.81
 0.426696787208  -1.36055440609 -0.592206706689 1714053205.82
 0.417195717135  -1.38369044906 -0.566543655571 1714053205.88
 0.401809256153  -1.40211070912 -0.532291555901 1714053205.89
 0.380949713278  -1.41524377238 -0.488427358218 1714053205.91
0.355404003933 -1.42238097589 -0.43430772692 1714053205.92
 0.326265678583  -1.42296812575 -0.369896342513 1714053205.98
 0.294834561049  -1.41685886155 -0.295936060562 1714053205.99
 0.262498159427   -1.4044660697 -0.214025192445 1714053206.01
 0.230608775096  -1.38677659033 -0.126577396047 1714053206.02
 0.200368209701   -1.3652310032 -0.036669755818 1714053206.08
 0.172729643698  -1.34150388913 0.0521950217346 1714053206.09
0.148324568492 -1.31724237234 0.136375799816 1714053206.11
0.127421214088 -1.29382803146 0.212395287531 1714053206.12
0.109918391641 -1.27221899167 0.277234133382 1714053206.18
0.0953741871974   -1.2529070403  0.328605880099 1714053206.19
0.0830632760198  -1.23599320279  0.365208165173 1714053206.21
0.0720520293465    -1.221351257  0.386942385384 1714053206.22
0.0612793859471  -1.20882066542  0.395082773065 1714053206.28
0.0496346073492   -1.1983567213  0.392361680229 1714053206.29
0.0360294561456  -1.19007240461  0.382927483995 1714053206.31
0.0194692313482  -1.18413472184   0.37213074768 1714053206.32
-0.000868979449203     -1.18052243502     0.366106879019 1714053206.38
-0.0255440157745   -1.17870003787   0.371150845109 1714053206.39
-0.054744758394   -1.1773000313   0.39291997841 1714053206.41
-0.0881817351825   -1.17391969104   0.435549180701 1714053206.42
-0.124997503034  -1.16512329468  0.500808993291 1714053206.47
-0.163722754171  -1.14669777109  0.587467470805 1714053206.49
-0.202303358507  -1.11414848117  0.691017609511 1714053206.51
-0.238213656255  -1.06335774828  0.803893808595 1714053206.52
-0.268654930145 -0.991279165664  0.916223234921 1714053206.57
-0.290818905489 -0.896520194645   1.01705246053 1714053206.59
-0.302179481373 -0.779681730965   1.09587862777 1714053206.61
-0.300766966298 -0.643373963404   1.14422615801 1714053206.62
-0.285381552708 -0.491900587499   1.15697160899 1714053206.67
-0.255716729367 -0.330678628928   1.13314732958 1714053206.69
-0.212384371283 -0.165517800846    1.0760486597 1714053206.71
  -0.156853653409 -0.00190605247669     0.99261046335 1714053206.73
-0.0913281413505   0.155567815667   0.892173418376 1714053206.78
-0.0185858474735   0.303570139704   0.784890427223 1714053206.79
0.0582019721713  0.440133137801  0.680096403889 1714053206.81
0.135669050949  0.56455192482  0.58496296985 1714053206.83
0.210471503941 0.677135305062 0.503684841282 1714053206.88
0.279523298796 0.778889052926 0.437316743064 1714053206.89
0.340237208971 0.871199984631 0.384231094873 1714053206.91
0.390744940742 0.955565936176 0.341034086944 1714053206.93
0.430061671706  1.03339129222 0.303692049287 1714053206.98
0.458161803625  1.10584840212 0.268598459496 1714053207
0.475944415469   1.1737958828 0.233354276485 1714053207.01
0.485085108339  1.23774410663 0.197124471315 1714053207.03
 0.48779072569  1.29786147759 0.160545776189 1714053207.08
0.486490300498  1.35401758268 0.125266622048 1714053207.1
 0.483506201233   1.40585825598 0.0932762046835 1714053207.11
 0.480752106239   1.45290287748 0.0662110252513 1714053207.14
 0.479499353289   1.49464764301 0.0448112552995 1714053207.18
  0.48024231992   1.53065316953 0.0286446123682 1714053207.2
 0.482679460002   1.56059430948 0.0161393997514 1714053207.21
 0.485811696178   1.58425725967 0.0048917807046 1714053207.24
   0.488145307706     1.60148408246 -0.00784614577687 1714053207.28
  0.487972892221    1.61208397952 -0.0246197169093 1714053207.3
  0.483694247208    1.61574726378 -0.0472858010538 1714053207.32
  0.474130656003    1.61200428025 -0.0766786973158 1714053207.34
 0.458783080134    1.6002624893 -0.112477113766 1714053207.38
 0.437988787758   1.57993133391 -0.153278167308 1714053207.4
 0.412942427457   1.55061355663 -0.196848594443 1714053207.42
0.385565476214  1.51231398732 -0.24049979273 1714053207.44
 0.358230299484   1.46560216106 -0.281522387698 1714053207.49
 0.333369321198   1.41166882844 -0.317615592272 1714053207.5
 0.313023403978   1.35223838808 -0.347253711721 1714053207.52
 0.298403264573   1.28933411526 -0.369944036097 1714053207.54
0.289549264422  1.22493149559 -0.38634487883 1714053207.59
 0.285173133205   1.16056662114 -0.398227963724 1714053207.6
 0.282745811377   1.09698325645 -0.408284561865 1714053207.62
  0.27885735689   1.03389976554 -0.419789211994 1714053207.64
 0.269821439189  0.969956048113 -0.436148662557 1714053207.68
 0.252437769541  0.902865616026 -0.460377486015 1714053207.7
 0.224774913173  0.829757080553 -0.494556196032 1714053207.72
  0.18680855046  0.747652194674 -0.539341967331 1714053207.73
0.140758025743 0.654002149047 -0.59361305503 1714053207.78
0.0910103922117  0.547194041754 -0.654329880706 1714053207.8
0.0435992236494  0.426945090465 -0.716681499621 1714053207.82
0.00529913495861   0.294520033322  -0.774550717554 1714053207.83
-0.0175150688696   0.152732807508  -0.821274991569 1714053207.88
-0.0200346106586 0.00572287389303   -0.85061225354 1714053207.9
2.01162182317e-05    -0.14147323451   -0.857757889826 1714053207.92
0.0418376479316 -0.283504913937   -0.8402218529 1714053207.93
 0.101479506567 -0.415367665197 -0.798379790856 1714053207.98
 0.172394027127 -0.533042648861 -0.735564509119 1714053208
 0.246397019528 -0.634010728417 -0.657654990486 1714053208.01
 0.314945666149  -0.71754869392 -0.572227923061 1714053208.03
 0.370475071648 -0.784749816514  -0.48743276507 1714053208.08
 0.407554011368 -0.838262474155 -0.410808958955 1714053208.1
 0.423649833476 -0.881797788334  -0.34826648696 1714053208.11
 0.419365947574 -0.919504733914 -0.303398528603 1714053208.13
 0.398114975457 -0.955334876672 -0.277204817259 1714053208.18
 0.365296976223 -0.992511127384 -0.268205346592 1714053208.2
  0.32714416635  -1.03317822709 -0.272846626723 1714053208.21
 0.289453608563  -1.07825943996 -0.286067379434 1714053208.22
 0.256447079066  -1.12749172876 -0.301901504335 1714053208.28
 0.229971009221  -1.17957707255 -0.314040945916 1714053208.3
   0.2091849643  -1.23238046107 -0.316337185074 1714053208.31
 0.190796193409  -1.28312508556 -0.303263964481 1714053208.32
 0.169795873814  -1.32857133969 -0.270379215294 1714053208.38
 0.140557553074  -1.36520105951 -0.214806514079 1714053208.4
0.0980877721505  -1.38944569584 -0.135713746315 1714053208.41
0.0391875417548  -1.39798835143 -0.034716269027 1714053208.42
-0.0367010120561   -1.38813706506  0.0839055628481 1714053208.48
-0.127127877495  -1.35822257593   0.21329171578 1714053208.5
-0.226819945532  -1.30793639803  0.344475766282 1714053208.51
-0.328382923789  -1.23851204244  0.467262516157 1714053208.52
-0.423389264223  -1.15267279802   0.57143461689 1714053208.58
-0.503652249682  -1.05431987221  0.648120870508 1714053208.6
-0.562456829361   -0.9479999964  0.691092875349 1714053208.61
-0.595531011146 -0.838251734375  0.697739652488 1714053208.62
-0.601594364538 -0.728966226306  0.669513423453 1714053208.68
 -0.58240267561 -0.622899704787  0.611738264131 1714053208.7
-0.542304000481 -0.521441221515  0.532803868873 1714053208.71
 -0.48741135401 -0.424679607626  0.442894993605 1714053208.72
-0.424562204331 -0.331745535853  0.352499267149 1714053208.78
-0.360262705281 -0.241345354613  0.270969190179 1714053208.8
-0.299802916714 -0.152366383155  0.205383385754 1714053208.81
-0.246684743805 -0.064424441651  0.159870453407 1714053208.83
-0.202438629354 0.0217581064088  0.135451162602 1714053208.88
-0.166830856776  0.104218643024  0.130349970159 1714053208.9
-0.138392057792  0.179893006144  0.140649280772 1714053208.92
-0.115138753193  0.245007360471  0.161123424038 1714053208.93
-0.0953218381697   0.295663149608   0.186095021969 1714053208.98
-0.0780265029562   0.328524958609   0.210193772448 1714053209
-0.0634733209789    0.34150349026    0.22894934832 1714053209.02
-0.0529319911497   0.334321225555   0.239198143275 1714053209.03
-0.0482510089151   0.308857002464   0.239314902389 1714053209.08
-0.0511109264308   0.269188032775   0.229289966501 1714053209.1
-0.0621990228572   0.221283776202   0.210664773892 1714053209.12
-0.0805498049028   0.172354429662   0.186322861095 1714053209.13
-0.103277384711  0.129913983511  0.160123883862 1714053209.18
-0.125838703403   0.10067672279  0.136374832891 1714053209.2
-0.142828980969 0.0894559085695  0.119159946112 1714053209.22
-0.149158903119 0.0982611055217  0.111594571149 1714053209.23
-0.141340259384  0.125783969149  0.115116003009 1714053209.28
-0.118549926718  0.167414083222  0.128958592184 1714053209.3
-0.0831705408205   0.215838768679   0.149963777704 1714053209.32
-0.0406163242164   0.262167275975   0.172837042359 1714053209.33
0.00158082752605    0.29740402159   0.190883561631 1714053209.38
0.0352671145271  0.314005995199  0.197146778414 1714053209.4
0.0534336517957  0.307222060389  0.185765159659 1714053209.42
0.051861115644 0.275942029741 0.153282804345 1714053209.43
0.0302613169956   0.22287967839 0.0996257493494 1714053209.48
-0.00735841905919    0.154055812485   0.0285007839911 1714053209.5
-0.0532073570636  0.0776998908513 -0.0529180530328 1714053209.52
-0.0970017500366 0.00281171089339  -0.135001513202 1714053209.53
 -0.127765633576 -0.0623133926038  -0.207208015322 1714053209.58
-0.135772327009 -0.111305095573 -0.259867916859 1714053209.6
-0.114242563559 -0.140472958621 -0.285860449819 1714053209.62
-0.0604844356809   -0.14900458993  -0.281853006673 1714053209.63
0.0237094524244 -0.138643805689 -0.248864596216 1714053209.68
 0.132434971137 -0.112989199025 -0.192058570074 1714053209.7
  0.256699087087 -0.0766119820998  -0.119828834035 1714053209.72
  0.385864114068 -0.0341978179251 -0.0423806017943 1714053209.73
 0.509236940667 0.0101233547813 0.0299086360534 1714053209.78
 0.617538715964 0.0531668777174 0.0880438949994 1714053209.8
 0.704049369694 0.0927910899111  0.125623372947 1714053209.82
0.765303190985  0.12776319422 0.139534340334 1714053209.83
  0.8012923605 0.157498542195 0.130073373294 1714053209.88
0.815198986873 0.181789574863 0.100536212666 1714053209.9
 0.812719386615   0.20061795405 0.0564059509124 1714053209.91
  0.801074024712   0.214096576312 0.00431776397178 1714053209.93
  0.787823032765   0.222532941042 -0.0490089206385 1714053209.98
  0.779635680136   0.226558955071 -0.0977003070864 1714053210
 0.781187331381  0.227248115355 -0.137394904547 1714053210.02
 0.794365195021  0.226144862105 -0.165581410288 1714053210.03
 0.817939311981   0.22515947853 -0.181605147536 1714053210.08
 0.847790619739   0.22632463084 -0.186395861045 1714053210.1
 0.877690208383  0.231452631951 -0.182008859244 1714053210.12
0.900512826952 0.241763467602 -0.17108911125 1714053210.13
  0.90967010246  0.257565344575 -0.156363219897 1714053210.18
 0.900490221953  0.278061070112 -0.140240842566 1714053210.2
 0.871267609641  0.301329166758 -0.124571906726 1714053210.22
 0.823761885203  0.324495242578 -0.110567172198 1714053210.23
  0.763029930188    0.34407405811 -0.0988555711213 1714053210.28
  0.696607056852   0.356432046293 -0.0896289378109 1714053210.3
   0.63318567836   0.358298310699 -0.0828168142682 1714053210.32
  0.581044654091   0.347242627907 -0.0782407490669 1714053210.33
  0.546537242438   0.322043696432 -0.0757151336847 1714053210.38
  0.532938422703   0.282889879542 -0.0750841206756 1714053210.4
  0.539884268283   0.231385187686 -0.0762049965267 1714053210.42
  0.563520211292   0.170369044143 -0.0789021485788 1714053210.43
  0.597333598545   0.103590722252 -0.0829195523066 1714053210.48
  0.633506235652  0.0352995687763 -0.0878937953211 1714053210.5
  0.664513004735 -0.0301847621175 -0.0933574342432 1714053210.51
  0.684637462922 -0.0888706154439  -0.098769315344 1714053210.53
 0.691089118306 -0.137431098021 -0.103559641965 1714053210.58
 0.684489742776 -0.173468905275 -0.107175890674 1714053210.6
 0.668631342348 -0.195708289802 -0.109120373629 1714053210.61
 0.649566727635 -0.204109727161 -0.108977676815 1714053210.63
 0.634238998792 -0.199890915405 -0.106436194475 1714053210.69
  0.62895492206 -0.185427570709 -0.101309991025 1714053210.7
   0.63803591348  -0.164009957383 -0.0935650656083 1714053210.71
  0.662932315201  -0.139452010505 -0.0833492152502 1714053210.73
  0.701973451897  -0.115585961193 -0.0710190439188 1714053210.78
     0.750775294 -0.0957145925546 -0.0571530755166 1714053210.8
   0.80317652321 -0.0821200709384 -0.0425380580556 1714053210.81
  0.852459155694 -0.0757305002258 -0.0281178780459 1714053210.83
  0.892558296596 -0.0760193337148 -0.0149017819854 1714053210.88
   0.918987113098  -0.0811648688016 -0.00383977200108 1714053210.9
  0.929289495721 -0.0884407653245 0.00431526392944 1714053210.91
  0.922960460558 -0.0947594048258  0.0091314822834 1714053210.93
  0.900909985268 -0.0972602509857  0.0105806565837 1714053210.98
  0.864655005201 -0.0938310705032 0.00905953719239 1714053211
  0.815479209793 -0.0834699193929 0.00534291173819 1714053211.01
   0.753788233378  -0.0664336379905 0.000475429526687 1714053211.03
   0.678814893678  -0.0441642462619 -0.00437858285284 1714053211.08
  0.588719351996 -0.0190271948664 -0.0081000437272 1714053211.1
  0.481017613621 0.00607418303034 -0.0097646230397 1714053211.11
    0.35319340509   0.0281305351332 -0.00874945165664 1714053211.13
   0.203325310356   0.0444314206128 -0.00477829817431 1714053211.18
 0.0305948167887  0.0528874058176 0.00209959485239 1714053211.2
-0.164387323472 0.0522371081163 0.0115851889808 1714053211.21
-0.379421154083 0.0421303880825 0.0232336696499 1714053211.23
-0.610657016339 0.0230978087401 0.0365543790712 1714053211.28
  -0.852562101681 -0.00357053118899   0.0510794387009 1714053211.3
  -1.09788333184 -0.0360065269913  0.0663889600448 1714053211.31
  -1.33764612082 -0.0719740576335  0.0820996949323 1714053211.33
 -1.56129658282 -0.109079016218 0.0978390211509 1714053211.38
   -1.757127998 -0.144958540348  0.113231204876 1714053211.4
-1.91310807808 -0.17743832913 0.127915675982 1714053211.41
 -2.01813723654 -0.204656143003  0.141600113878 1714053211.43
 -2.06363645603 -0.225155432592  0.154131264843 1714053211.48
-2.04522175526 -0.23795359207 0.165552233472 1714053211.5
-1.96411609163 -0.24258487303 0.176113231418 1714053211.51
 -1.82792129764 -0.239111510765  0.186215306001 1714053211.53
-1.65044698755 -0.22809256275 0.196289937509 1714053211.58
 -1.45046533842 -0.210501985247   0.20664412816 1714053211.6
 -1.24949302091 -0.187596501627  0.217321150451 1714053211.61
 -1.06893413022 -0.160747511361  0.228032066696 1714053211.63
-0.927086467723 -0.131265025058  0.238196533202 1714053211.68
-0.836570617945 -0.100250328893  0.247094782464 1714053211.7
 -0.802670872196 -0.0685140693051   0.254087190571 1714053211.71
  -0.82289684794 -0.0365863200884   0.258821745184 1714053211.73
  -0.887828309095 -0.00482603607481    0.261340865749 1714053211.78
-0.983050128329 0.0263876270685   0.26202574627 1714053211.8
 -1.09177633518 0.0564253426879  0.261372239185 1714053211.82
 -1.19764606485 0.0842024600452  0.259657772272 1714053211.83
-1.28717174027 0.108070311448 0.256609356551 1714053211.88
-1.35142521933 0.125866167774 0.251198851198 1714053211.9
-1.38673024809 0.135154704571 0.241665937188 1714053211.92
-1.39434362876 0.133647854003 0.225808406461 1714053211.93
-1.37930507466  0.11973668959 0.201501093223 1714053211.98
 -1.34877757534 0.0930227610844  0.167331844487 1714053212
 -1.31026240218 0.0547126092674  0.123196606897 1714053212.02
  -1.27004985802 0.00774987983302  0.0706900274769 1714053212.03
  -1.23217067628 -0.0433924593828  0.0131660793447 1714053212.07
  -1.19797110322 -0.0932606000083 -0.0445835004721 1714053212.1
  -1.16628411791  -0.136224012791 -0.0969950786094 1714053212.12
 -1.13404721693 -0.167379590143  -0.13862180097 1714053212.13
 -1.09715079762 -0.183366315325 -0.165068199106 1714053212.17
 -1.05129942759 -0.182914579228 -0.173780490536 1714053212.21
-0.992720391465   -0.1670120318 -0.164532867477 1714053212.22
-0.918634653641 -0.138653797816 -0.139514684265 1714053212.23
-0.827485324664 -0.102236125777 -0.103004781929 1714053212.27
 -0.718974656232 -0.0627264391129 -0.0606980889159 1714053212.31
 -0.593982103405 -0.0247828737419 -0.0188102385338 1714053212.32
 -0.454426309839 0.00800409961511  0.0168813823686 1714053212.33
-0.303105913629  0.033612881727 0.0418995594637 1714053212.37
 -0.14352413307 0.0517620959602 0.0536963045137 1714053212.41
 0.020316439392 0.0637500259948 0.0519572996899 1714053212.42
 0.184163259417 0.0720226991509  0.038544496627 1714053212.43
 0.343806768446 0.0795740639797 0.0170961760954 1714053212.47
   0.495392656859   0.0892996129225 -0.00764458185248 1714053212.51
   0.63570779582   0.103418712437 -0.0306611800846 1714053212.52
  0.762384831214   0.123056382939 -0.0475178844416 1714053212.53
  0.873979732152   0.148039996735 -0.0550964314353 1714053212.57
  0.969904321726   0.176927777199 -0.0520928511963 1714053212.61
   1.05023399759   0.207249860596 -0.0391931506164 1714053212.62
   1.11544639864   0.235912891428 -0.0189029138168 1714053212.63
   1.16616675955   0.259698148229 0.00493229593747 1714053212.68
  1.20299233085  0.275772742609 0.0278240787481 1714053212.7
  1.22644178992  0.282134603677 0.0454278531406 1714053212.72
  1.23703448848    0.2779248225 0.0542800231005 1714053212.73
  1.23546252823  0.263563767825 0.0523619738244 1714053212.78
 1.22279016012    0.240696398 0.039403773762 1714053212.8
 1.20060890444 0.211962226089 0.016889317803 1714053212.82
   1.17109390447    0.18063127674 -0.0122242368336 1714053212.83
   1.13694015702   0.150165099605 -0.0440152075997 1714053212.88
   1.10119415363   0.123769251795 -0.0742445479583 1714053212.9
   1.06702411512   0.104000345041 -0.0990351050305 1714053212.92
  1.03748108545 0.0924782236182 -0.115476373185 1714053212.93
  1.01529146692 0.0897348360096 -0.122062858235 1714053212.98
  1.00269531328 0.0952094323639 -0.118901093016 1714053213
   1.0013164799  0.107378749958 -0.107655848834 1714053213.02
   1.01203462926   0.123994358662 -0.0912460789416 1714053213.03
   1.03483446207   0.142389461301 -0.0733408881764 1714053213.08
    1.0686344786   0.159814220486 -0.0577395055772 1714053213.1
   1.11113595664   0.173760394493 -0.0477401674792 1714053213.12
   1.15876555054   0.182240543798 -0.0456053254152 1714053213.13
   1.20679443051   0.183993077348 -0.0522126447852 1714053213.18
   1.24969293148    0.17859209506 -0.0669460775599 1714053213.2
   1.28172470459   0.166451161252 -0.0878367648286 1714053213.22
  1.29771354799  0.148722898666 -0.111919737659 1714053213.23
  1.29385174085  0.127110019285 -0.135738387564 1714053213.28
   1.2683818752  0.103615166546 -0.155909781561 1714053213.3
  1.22198762784 0.0802640173163 -0.169660686626 1714053213.31
  1.15777392144 0.0588375244144   -0.1752537334 1714053213.33
  1.08079418772 0.0406460192898 -0.172241601492 1714053213.39
 0.997175503724 0.0263720214832 -0.161511584546 1714053213.4
 0.912981668244 0.0160012227623 -0.145111844537 1714053213.41
  0.833020899129 0.00885216902287  -0.125882676056 1714053213.43
  0.759833834236 0.00370400753827  -0.106948359719 1714053213.49
     0.69308080488 -0.000991685027333   -0.0911527346401 1714053213.5
    0.62948519537 -0.00684305707381  -0.0805380022329 1714053213.51
  0.563390707671  -0.015234185055 -0.0759654434744 1714053213.53
  0.487870457048 -0.0270720507027 -0.0769555689032 1714053213.59
  0.396206856426 -0.0426097393628 -0.0817855535941 1714053213.6
  0.283468186796 -0.0613810938522 -0.0878309280145 1714053213.61
  0.147863789934 -0.0822639263729 -0.0920876685617 1714053213.63
-0.00842006957256    -0.10366576606  -0.0917722171936 1714053213.69
 -0.179116085659   -0.12380241454 -0.0848800154415 1714053213.7
 -0.354579026223  -0.141020404425 -0.0705918212812 1714053213.71
 -0.523209952957  -0.154104317715 -0.0494488591303 1714053213.73
  -0.67336224159  -0.162511320555 -0.0232649253958 1714053213.79
 -0.795377789876  -0.166487959502 0.00520442213022 1714053213.8
-0.883355682247 -0.167045525115 0.0327687124537 1714053213.81
-0.936288793733 -0.165795764006 0.0563855599043 1714053213.83
-0.958313790884 -0.164673406186 0.0737067535081 1714053213.89
-0.957987685253 -0.165591410842 0.0834838386316 1714053213.9
 -0.94669717663 -0.170086230516 0.0857600227403 1714053213.92
 -0.93648646193 -0.179012921031 0.0818202322929 1714053213.93
-0.937717435298 -0.192343959747 0.0739208366469 1714053213.99
-0.957024866094 -0.209111802686 0.0648638559969 1714053214
-0.995984641088 -0.227514175344 0.0575075355688 1714053214.02
 -1.05077984528 -0.245174243762 0.0543098030294 1714053214.03
 -1.11295028783 -0.259518338674 0.0569829002498 1714053214.08
 -1.17108560049 -0.268207409975 0.0663025592404 1714053214.1
 -1.21312012181 -0.269542123325 0.0820748468891 1714053214.12
 -1.22875811489 -0.262761853879  0.103231224026 1714053214.13
 -1.21153360974 -0.248177093382  0.128007237606 1714053214.18
 -1.16009671896 -0.227109369561  0.154164790048 1714053214.2
   -1.078494643 -0.201653984843  0.179235105708 1714053214.22
-0.975435488399 -0.174317932607  0.200776219916 1714053214.23
-0.862732624417 -0.147609053859  0.216642946664 1714053214.28
-0.753279137662 -0.123658020711  0.225255030002 1714053214.3
-0.658966509523 -0.103942462925  0.225827680702 1714053214.32
 -0.588932968171 -0.0891570385608   0.218512053069 1714053214.33
-0.548421722106 -0.079241096734  0.204394452061 1714053214.38
 -0.538380334651 -0.0735434811876   0.185326970562 1714053214.4
 -0.555778768743 -0.0710776369123   0.163603048779 1714053214.42
 -0.594499076116 -0.0708038793405   0.141535674705 1714053214.43
 -0.646574974325 -0.0718725621896   0.121028349882 1714053214.48
 -0.703538990758 -0.0737732938445   0.103238151225 1714053214.5
 -0.757659154974 -0.0763598816927  0.0884122135405 1714053214.52
  -0.80289976228 -0.0797533633143  0.0759378523519 1714053214.53
 -0.835504541438 -0.0841583456186  0.0645931388801 1714053214.58
 -0.854163481025 -0.0896519544732  0.0529335560398 1714053214.6
 -0.859781169846 -0.0960127628641   0.039715766345 1714053214.62
-0.854914394242 -0.102646087273 0.0242515538823 1714053214.63
 -0.842990232822  -0.108634564761 0.00660612460627 1714053214.68
 -0.827449559904  -0.112906606727 -0.0124010928653 1714053214.7
 -0.810976053469  -0.114480580065 -0.0313814936976 1714053214.72
 -0.794956977129  -0.112719226105 -0.0486895856515 1714053214.73
 -0.779273705332  -0.107523265388 -0.0627770187849 1714053214.78
 -0.762443275633 -0.0994067186162 -0.0725021920201 1714053214.81
 -0.742046350554 -0.0894254950531 -0.0773317689555 1714053214.82
 -0.715308507611 -0.0789676838304 -0.0774056798638 1714053214.83
 -0.679674122494 -0.0694493873266 -0.0734723351147 1714053214.87
 -0.633234756312 -0.0619850986696 -0.0667258892522 1714053214.91
 -0.574937712268 -0.0571103179052 -0.0585885891822 1714053214.92
 -0.504581020868 -0.0546239244834 -0.0504805243107 1714053214.93
 -0.422669271053 -0.0535908967953 -0.0436116801531 1714053214.97
  -0.33023759972 -0.0525087761724 -0.0388220772448 1714053215.01
 -0.228740112253 -0.0496032348623 -0.0364874254426 1714053215.02
 -0.120051098885 -0.0431889698057 -0.0364998376047 1714053215.03
-0.00656173504524  -0.0320190580272  -0.0383241915041 1714053215.07
  0.108704101378 -0.0155513429004 -0.0411200027154 1714053215.11
  0.222061753814 0.00591835906563 -0.0439075055189 1714053215.12
  0.329321649737   0.031276127704 -0.0457480568678 1714053215.13
 0.426174398036 0.0587515188365 -0.045906139196 1714053215.18
  0.508773777027  0.0861842247778 -0.0439647005161 1714053215.21
  0.574408084616   0.111344065868 -0.0398764319718 1714053215.22
    0.6220973715    0.13224868396 -0.0339478555299 1714053215.23
  0.652946802322   0.147429348851 -0.0267668713838 1714053215.28
   0.67013095208   0.156108425205 -0.0190941435998 1714053215.31
  0.678469053922   0.158268934426 -0.0117421966703 1714053215.32
   0.683652450959    0.154614226909 -0.00546317470368 1714053215.33
    0.691273800277     0.146431660416 -0.000858805987706 1714053215.38
  0.705859291659   0.135386599887 0.00168238695221 1714053215.41
  0.730108289802   0.123280804692 0.00202163910888 1714053215.42
   0.764500605177    0.111811726092 0.000282682329869 1714053215.43
   0.807352117592    0.102366418673 -0.00315982514517 1714053215.48
   0.855303321231   0.0958763775883 -0.00772112605964 1714053215.5
  0.904133147549  0.0927490216538 -0.0126832194685 1714053215.52
  0.949720988234  0.0928795572028 -0.0173103169323 1714053215.53
  0.988947321942  0.0957353392756 -0.0209946105721 1714053215.58
   1.02033510331    0.10049496266 -0.0234094261581 1714053215.6
   1.04428938238   0.106217208444 -0.0246339620467 1714053215.62
   1.06288206515    0.11201155207 -0.0252088783955 1714053215.63
   1.07923441282   0.117182853438 -0.0260894644619 1714053215.69
  1.09664749047  0.121328107129 -0.028483776724 1714053215.7
  1.11769446007  0.124371896299 -0.033593194754 1714053215.72
    1.1434985022   0.126537909908 -0.0423044118811 1714053215.73
   1.17337028521   0.128264606038 -0.0549050765177 1714053215.79
   1.20488183192    0.13008198065 -0.0709012223047 1714053215.8
   1.23433826486   0.132472157896 -0.0889985349075 1714053215.82
  1.25751078538  0.135738632478 -0.107273230648 1714053215.83
  1.27044191912  0.139907426115 -0.123510609913 1714053215.89
  1.27013826873  0.144678320567 -0.135643419351 1714053215.9
  1.25501713587  0.149436171876 -0.142191326657 1714053215.92
  1.22504801466  0.153322239522 -0.142596169969 1714053215.93
  1.18160240887  0.155355300248 -0.137367519645 1714053215.99
  1.12707783993  0.154584016864 -0.127994846554 1714053216
  1.06438858526  0.150246972885 -0.116636370188 1714053216.02
 0.996420752316  0.141915344942 -0.105648162993 1714053216.03
  0.925540855177   0.129594910502 -0.0970582676032 1714053216.09
  0.853231744699   0.113768312085 -0.0921095740254 1714053216.1
  0.779910034345  0.0953649618824 -0.0909857765168 1714053216.12
  0.704953841681  0.0756548709019 -0.0927960112939 1714053216.13
  0.626936714852  0.0560740416856 -0.0958320722719 1714053216.19
  0.544024112951  0.0380018651327 -0.0980413469678 1714053216.2
 0.454449408836 0.0225228221681 -0.097597797168 1714053216.22
  0.356958454113  0.0102124525605 -0.0934208392495 1714053216.23
   0.251107378063 0.000988076058142  -0.0854991451691 1714053216.29
   0.137325098075 -0.00594322346631  -0.0749229710195 1714053216.3
 0.0167089652359 -0.0120223631812 -0.0636027057493 1714053216.32
 -0.109402185863 -0.0191647179168 -0.0537331911199 1714053216.33
 -0.239958193718 -0.0294981197554 -0.0471316608851 1714053216.39
  -0.37466017691 -0.0450507987274 -0.0446149936758 1714053216.4
 -0.514176761136 -0.0674358306534 -0.0455807503181 1714053216.42
 -0.659979515372 -0.0975783163895 -0.0479166439625 1714053216.43
 -0.813754564842  -0.135523314595 -0.0482929358771 1714053216.49
 -0.976465559155  -0.180348634583 -0.0428058744136 1714053216.5
 -1.14725849533 -0.230190285549 -0.027855530583 1714053216.52
   -1.32247990357    -0.28237339483 -0.00107690361686 1714053216.53
 -1.49510163057 -0.333630630669 0.0378852206596 1714053216.59
 -1.65479599645 -0.380384644599  0.086950191034 1714053216.6
