-0.0216255675952496 -0.0684060495509079 -0.0701219169381452 0.100320167583882 1714053202.21974
-0.0013450813650808 -0.0460987107493296 -0.0788139686927504 0.0913156177098468 1714053202.23455
 0.119843101327121 0.0312565362683618 -0.149310968624579 0.193992539410174 1714053202.28661
  0.433896319447188 -0.0469079622611332  -0.243414830159458 0.499717072446866 1714053202.3036
  0.412319770301632 -0.0564746040433744  -0.372145095871328 0.558291094559573 1714053202.32078
   0.42633886559292 -0.0207257088910008  -0.426200818930637 0.60319277298492 1714053202.3356
  0.46409427651004 0.0981738836031301 -0.772416054626146 0.906448106818764 1714053202.38788
 0.279906679873743  0.182688932291012 -0.640411422021286 0.722391711521455 1714053202.40494
 0.266273747003187  0.119654503755735 -0.594632963500232 0.662425293820531 1714053202.42149
 0.282416258589753  0.131514963363943 -0.578308389408182 0.656883339691561 1714053202.43667
 0.273897562838191 0.0417618322883771 -0.661530911062086 0.717207830308215 1714053202.48859
 0.321847657922106 0.0174413824528652 -0.538717354075038 0.627779025066481 1714053202.50595
   0.313833140739408 -0.00620884837338757   -0.487436386895766 0.579762038507597 1714053202.5223
    0.317188320364003 -0.000422319147947376    -0.460474038589071 0.559146625799824 1714053202.53688
 0.331220676663638 0.0265996953488611 -0.532248490889562 0.6274576770559 1714053202.58855
  0.18161035836153 0.0820426103738411 -0.426136283992451 0.47043112643197 1714053202.60635
 0.159287792384952 0.0952323831496834 -0.349150886366068 0.395408837854506 1714053202.62115
  0.15363640365071 0.0925315920875795 -0.289477336812697 0.340533946309553 1714053202.63654
  0.114679204524751 0.00530105047530508   -0.30795475043641 0.328657191314785 1714053202.6882
  0.113007902359694 -0.0163768410387787  -0.252887536991729 0.277472689257683 1714053202.70587
  0.147189843740519 -0.0676375393759913  -0.269597062282504 0.314519097710383 1714053202.72088
  0.140557128001399 -0.0578533718169833  -0.305981996253738 0.341655236889497 1714053202.73661
  0.111360362604932 -0.0568188562357504  -0.484236469044161 0.500114457635248 1714053202.78812
-0.00528520547564528   0.0514692453049412   -0.418148048999488 0.421336928705826 1714053202.80596
0.0134406232453102 0.0313919047902595 -0.380726694810362 0.382255043368699 1714053202.82045
0.0198885950651191 0.0511712948622465 -0.391599793511413 0.395429457564462 1714053202.83609
0.0133853479202596 0.0108247194876698 -0.539324175192658 0.539598839915519 1714053202.88798
0.0127097147171099 0.0208622882370219 -0.445686386605261 0.446355382093606 1714053202.90579
  0.0602871586101784 -0.00797942938619379   -0.376742076050264 0.381618663921566 1714053202.92114
0.0770338314951945   0.03009215063021 -0.332220873250347 0.342360128151052 1714053202.93601
0.0959440901681519 0.0735584369845976 -0.443818806303426 0.459990483508528 1714053202.98856
0.0186937455597393  0.107517595675039 -0.404135692085375 0.418610973482681 1714053203.00675
0.0498838650917281 0.0937696547138317 -0.367472235749752 0.38251404181881 1714053203.02158
0.0728759440985955  0.129439829226378  -0.39001199666514 0.417342701099641 1714053203.03603
 0.124946328924697  0.160853249226761 -0.506524870754619 0.545942119268653 1714053203.08867
0.0624433778263379  0.146820741127948 -0.372048055801066 0.404815095179362 1714053203.10706
0.0765632568306817  0.140719009170258 -0.248454311587107 0.295623606609153 1714053203.1211
0.0619274893615405  0.122053235601542  -0.17545283675844 0.22252124434762 1714053203.13625
  0.0643003429590989    0.100198419393704 -0.00694396178593186 0.119258022618769 1714053203.18742
-0.0168952590908794    0.10806710778807  0.0598345443107418 0.124676069308831 1714053203.20529
-0.00510404964657968   0.0999453928315627    0.166186319709639 0.193992334203402 1714053203.21874
-0.0193143527449095  0.0883197804310271   0.259610133278175 0.274901526256315 1714053203.23423
-0.0721186790367472 -0.0590960532122159   0.720692980483326 0.726699263443418 1714053203.2848
 -0.092361131451692 -0.0509049176683865   0.611339746043258 0.620369385397198 1714053203.30265
-0.0704115230846017 -0.0705952583843696   0.616100519022393 0.624116433551554 1714053203.31627
-0.0784115370396922 -0.0700354741219467   0.658039580341388 0.666385343530515 1714053203.33164
-0.171276200795283 -0.207763424427223   1.20141261336495 1.23121624625449 1714053203.38297
 -0.17933442638181 -0.145442519252159  0.981176392301227 1.00797890637719 1714053203.4004
-0.165261453688832 -0.178228413919869  0.973943236723442 1.00381379944842 1714053203.4156
-0.161061619220763 -0.180014708793453   1.04221610579757 1.0698413675643 1714053203.4299
-0.170478511909243 -0.301887666996146   1.63539906917704 1.67174435903707 1714053203.48125
-0.130356132485741 -0.222176738786646   1.22683170347075 1.2535833650681 1714053203.49697
-0.134101399954979 -0.229812520018152   1.10485919150979 1.13644657282719 1714053203.51376
-0.113422797469738 -0.194652241179129   1.03714609997711 1.06133230360696 1714053203.5281
0.0488015817539864 0.0796553114647488   1.25342428273515 1.25690055118787 1714053203.58084
0.051076037109155 0.252864562500446 0.887374348539929 0.924111726460595 1714053203.59752
-0.0341428039880812   0.343485705415153   0.885327842334367 0.950238680175218 1714053203.61414
-0.0361002169338387   0.349114052476447   0.893175442002668 0.959659427867959 1714053203.62883
-0.0597178340019993   0.340767121904265    1.55796454273831 1.59591414790978 1714053203.68103
-0.119614756523839   0.52579728217974   1.21467224225761 1.32898424672266 1714053203.69722
-0.168174754354557  0.566848496042752    1.1546915866234 1.29727122287015 1714053203.71366
-0.183872231318098  0.534436990804833   1.12641993747703 1.26025940589078 1714053203.72802
-0.301440569436452  0.432690926578312   1.59388150201615 1.67885261333884 1714053203.78136
-0.200512837294955  0.334116395372806   1.21686640291359 1.27773354269067 1714053203.79777
-0.196036877825764  0.198291125896307   1.17625190970676 1.20885002509232 1714053203.81439
-0.223209768732213  0.125225728141489     1.153382992988 1.18143828123183 1714053203.82734
 -0.367721313901507 -0.0116444810687863    1.59832210348492 1.64011832046511 1714053203.88175
-0.0703702059382017 -0.0466254760521273    1.30615101042305 1.30887599218949 1714053203.89742
-0.0822769945839272 -0.0586286381243192    1.21101052977326 1.21521739794482 1714053203.91424
-0.0947917940890685 -0.0936235843253338    1.15255408569234 1.16022919296778 1714053203.92737
-0.106215196363911 -0.179517380687947   1.28454217813796 1.30136726765472 1714053203.98236
-0.0833489875812737  -0.148119297906116    1.08192388610911 1.09519207241308 1714053203.99804
-0.114278242640985  -0.12737073546661   1.02419880970758 1.03839588924496 1714053204.01506
 -0.14248934640943 -0.177040697024146  0.935532649511381 0.962739819756495 1714053204.02847
-0.109814662475345 -0.311662047649932   1.01233176877192 1.06489816513355 1714053204.0808
 0.138526650162908 -0.323077553569025   0.89416214921158 0.960778167689178 1714053204.098
 0.162750317422723 -0.243987368042815  0.797012797981372 0.849262563481843 1714053204.11535
 0.127053752235574 -0.293221534368538   0.68963816827894 0.760080474240531 1714053204.12927
 0.135217716661015 -0.344976357405854  0.646723512231468 0.745348119566311 1714053204.18201
 0.101003137712434 -0.327004814076946  0.464004307169138 0.576570706270069 1714053204.20007
0.0988798620773016 -0.225572725412884  0.351376446548339 0.429098693500178 1714053204.2169
0.0694901091481413 -0.285747880502993  0.304539737501323 0.423349947677743 1714053204.23224
0.0930927945650481 -0.369830661863218    0.2365164013028 0.448754938623903 1714053204.28248
0.0255395596412469 -0.372555789618176 0.0729842334580581 0.38049544520027 1714053204.30064
0.0312371359345349 -0.274168319548029 -0.077477444426557 0.286612596548115 1714053204.31842
0.00828238392577223  -0.290642864378629  -0.182992657458689 0.343552303414635 1714053204.33403
0.0614006517154077 -0.322083585198586 -0.434673056971075 0.544470882914808 1714053204.38468
-0.0320460970568982  -0.319385594696092  -0.677111907900261 0.749342809571352 1714053204.40298
-0.0514456174337653  -0.346960446243764  -0.786095660920242 0.860798809785681 1714053204.42129
-0.0511121945568558  -0.358118114603789   -0.77424963965509 0.854589693915055 1714053204.43564
-0.00752587370248591   -0.403660224381097   -0.959321954379464 1.04081546283518 1714053204.48746
0.0231466645805648 -0.423553022735562  -1.03564562590246 1.11914913822981 1714053204.5046
0.00843497403112667   -0.48051554387068    -1.1775220537173 1.27181937541415 1714053204.52304
-0.0111925747266921  -0.531652226200789   -1.19314015370191 1.30627822064409 1714053204.53899
0.0353202148458824 -0.555067431957253  -1.47739046521619 1.57861646966833 1714053204.58945
-0.00608546606684281   -0.581383450889789    -1.54845147991778 1.65400898894938 1714053204.60627
-0.0245489421325893  -0.558759561293439   -1.73791600694063 1.82569629048128 1714053204.62462
-0.0303434190775686  -0.590683691577189   -1.74372996691192 1.8413098989804 1714053204.64182
-0.0533525780960298  -0.606992425151827    -1.8940521121918 1.98965316210625 1714053204.68874
-0.0618868284016808  -0.715109742590763   -1.71026833253324 1.85478561907943 1714053204.70378
0.0423935146810141 -0.930378863483692  -1.79343539681213 2.02084451708757 1714053204.72097
0.0546315426019891 -0.952673578840486  -1.84548623853609 2.07759259959548 1714053204.74196
0.0379524807183416  -1.03545650987028  -2.06631704814697 2.31155288022754 1714053204.78851
-0.0689451687004327  -0.927766310504735   -1.88755968532676 2.10437290632282 1714053204.80326
-0.122544540539801 -0.857843650160273  -2.05689640057107 2.23198021837529 1714053204.82065
-0.0797209492635621  -0.757231066803818   -2.13977197312679 2.27120637883554 1714053204.84227
-0.197834872201592 -0.434610242708662  -2.31926962441646 2.36791813424096 1714053204.8892
-0.266701015796426 -0.372098455524465  -1.74548999086982 1.80452819336725 1714053204.90402
 -0.33753711548316 -0.316580350123701  -1.76154620898199 1.82131805810846 1714053204.92219
-0.344354610473586 -0.266808274079289  -1.77876917230891 1.83133462841397 1714053204.94158
 -0.456715378996229 -0.0236602742012143   -2.17176038987752 2.21938999209871 1714053204.98997
 -0.409222855930066 0.00148301512307314   -1.69900708421642 1.74759566758647 1714053205.00524
-0.442601933213979 0.0429328702819601  -1.53717468386952 1.60020177207899 1714053205.0219
-0.415496714835565   0.12080087770581  -1.47101355568272 1.53333337963274 1714053205.04045
-0.434867305943978  0.287698327929736  -1.65340632819193 1.73367597542841 1714053205.09023
-0.304744028131898  0.200478784627395  -1.32048106866682 1.36993829002448 1714053205.1061
-0.255237281556214  0.186305762757601  -1.24948383664523 1.28882340340738 1714053205.12074
-0.25829884747443 0.205499178796373 -1.25520020851895 1.29787355723068 1714053205.14028
-0.286644077371026  0.113396189702949  -1.57401537666781 1.60391643451825 1714053205.18686
-0.184777098137298 0.0891803207863929  -1.24119034307897 1.25803385223296 1714053205.20354
-0.128810232070268  0.100944343417945 -0.993286356430376 1.00667751649911 1714053205.21638
-0.0903941583534551   0.145069296172149   -0.89499090671886 0.911166794646161 1714053205.23723
-0.0788110475220086   0.245604618625534  -0.754753889145548 0.797612840344262 1714053205.28684
 -0.12147912742314  0.205491097981926 -0.526590856044476 0.578170994965122 1714053205.30247
-0.0886328346922094   0.214340295868639  -0.408956643245651 0.470152185864729 1714053205.31532
-0.0815543431954702   0.243505036368356  -0.338919682340454 0.425220371935016 1714053205.33624
-0.0524935766117268    0.33111640132982  -0.364809151341841 0.495458740681659 1714053205.38331
-0.115118653208301  0.297855887609457 -0.231340651186757 0.394320847777065 1714053205.40011
-0.0998625443716218   0.314702221557649  -0.151883354488917 0.363426153974228 1714053205.41412
-0.0825811687771374   0.373929372230928 -0.0729521161309035 0.389826674435692 1714053205.43238
-0.140021764541292  0.539740883712497   0.25277076503568 0.61222493885232 1714053205.48089
-0.261890316470728  0.456970764279592  0.332388287099145 0.622808791418455 1714053205.49797
-0.247686832617212  0.461909705709535  0.405756471761749 0.662833054137434 1714053205.51314
-0.222144361651369  0.510721171735392  0.465051581890945 0.725573708517293 1714053205.52966
-0.275897653816521  0.650764826173457  0.875099253772486 1.12490580864319 1714053205.57987
-0.337565321045808  0.553153488217762  0.742688505310428 0.985654779027867 1714053205.59739
-0.303809194105499  0.507153807821935  0.731094886144271 0.94021526458446 1714053205.61118
-0.298881788820765  0.515470084324833  0.777039969131232 0.97919908351163 1714053205.62746
-0.272691851396564  0.726612329488593   1.34044384466459 1.54890801014202 1714053205.67732
-0.436711516788267  0.677197078676441   1.12671241967144 1.38520529485896 1714053205.69524
-0.382363787527955  0.602383707782834   1.09070322118611 1.30334251604123 1714053205.70966
-0.389248262659821  0.608141046262654   1.09360285585112 1.31046440182817 1714053205.72428
-0.389467802113992  0.680745439162892   1.72784199655679 1.89750823104669 1714053205.77785
-0.469456886564621  0.631691692016893   1.30000488068652 1.51968314194601 1714053205.79563
-0.405026437338316  0.533443514487493   1.15806539695728 1.33780561432577 1714053205.80985
-0.401394387383366  0.558900704100497   1.06440292126874 1.26745454753704 1714053205.82317
-0.37827495059887  0.58786764295042  1.84292095924641 1.97104996535054 1714053205.87637
-0.428253837339905  0.561913445896389   1.43423486235556 1.59880508826798 1714053205.89403
-0.369664303465536  0.384073190278126   1.26457998950073 1.37234342006392 1714053205.90753
-0.347132913413715  0.415158697249337   1.24972558283857 1.36186344244865 1714053205.92054
-0.285286155898991  0.466004983733681   2.01176396402558 2.08464459382508 1714053205.97807
-0.255823580284731  0.394170584926011   1.42482287213937 1.50031209127371 1714053205.9944
-0.216288909102677  0.173013077761187     1.194714846989 1.22640041703074 1714053206.00867
-0.262856766983831 0.0678294856895483    1.1606945173807 1.19201773550385 1714053206.02108
  -0.28512125459362 -0.0425672111580355    1.85430423139257 1.87657940941683 1714053206.07757
 -0.11262326587698 -0.103784795835489   1.31958162811083 1.32843929372443 1714053206.09289
-0.0871423864657878  -0.198915315897311    1.19048187432706 1.2101273451661 1714053206.10826
-0.0480416433643569   -0.15534327399566    1.14785056199984 1.15931033160072 1714053206.12069
-0.198477346526333 -0.282997453894078   1.63602565550567 1.67214256613108 1714053206.17678
-0.0515894365915257  -0.313150073905186    1.14392474410569 1.18713447382001 1714053206.19205
-0.0506645212579069  -0.390894870296967    1.12074114787357 1.18803468546829 1714053206.20831
-0.0557380279786212    -0.3975041318338    1.08458469406748 1.1564775057014 1714053206.22106
-0.185794880686146 -0.485625023311275    1.6011631105756 1.68347102963591 1714053206.27625
0.0294083129070511 -0.379950731908163   1.19103796882665 1.25051943236892 1714053206.29173
0.0107688948140185  -0.35421590019108   1.17976962622474 1.23184465092241 1714053206.30847
0.0102352590725476 -0.362837042547065   1.13935142710138 1.19577470888564 1714053206.32135
-0.0350684928835962   -0.44534420304332    1.36662208883358 1.43778203913711 1714053206.3759
0.0965679173958924 -0.480579345010845   1.13287937143861 1.23438144013606 1714053206.39188
0.0745795868632319 -0.462939684206784   1.11522923228839 1.20979812635858 1714053206.40919
0.0790084029501958  -0.46184822318058   1.10514492996096 1.20037136970615 1714053206.42235
0.0947755115059972  -0.55044655962954   1.23666964815605 1.35695454281255 1714053206.4742
 0.219010543339228 -0.574628060355892   1.12537058013069 1.28242815333484 1714053206.49218
 0.218162988031441 -0.666936224437526   1.05528065880277 1.26728697841372 1714053206.50941
 0.202698992514827 -0.695974722437477   1.04352514789379 1.27059530540814 1714053206.5234
 0.216010346980477 -0.888824514855367    1.1846529341504 1.49668702894148 1714053206.57262
 0.320879693300589 -0.965780481604585  0.965468401384469 1.40279184139805 1714053206.59054
0.375292497175215 -1.23765297905239 0.763145941696859 1.50167276172995 1714053206.60758
0.346239724378837 -1.26983171236474 0.705640643452791 1.49341328578447 1714053206.62414
0.386065359615996 -1.30904193591926 0.541132375248199 1.46814900450616 1714053206.6744
0.193451652664123  -1.3052454183456 0.152122938262115 1.32824340102865 1714053206.69011
  0.114349074780023   -1.06172210090643 -0.0080077177214484 1.067892154667 1714053206.70725
  0.135405055652475    -1.0472059546261 -0.0232447219660257 1.05617951012121 1714053206.72781
 0.0470244486845214  -0.813623343699249 -0.0528702826959064 0.81669425795629 1714053206.77673
0.0167049195616046 -0.779905119190038 -0.295151239932044 0.834053537675975 1714053206.79054
-0.0570969911115602  -0.543171956888183   -0.46774741400293 0.719085171902578 1714053206.8081
-0.0275869370437351  -0.552874751009494   -0.50450958618238 0.748973598966733 1714053206.82972
-0.101429184003515 -0.395506259986835 -0.696591805867496 0.80743620494633 1714053206.87928
-0.443672895883049 -0.480799889354624 -0.734795746571214 0.983838889922439 1714053206.89391
 -0.46519190860616 -0.494659337273183 -0.915600212953403 1.13991891016182 1714053206.9109
-0.362189537326633 -0.497811811852138  -1.02779123972466 1.19806205741737 1714053206.93343
-0.374654648779692 -0.235172468199364  -1.18786749637751 1.26755725101527 1714053206.98113
-0.527385091382311 -0.308972507473798  -1.03066323741381 1.19827615929855 1714053206.9955
-0.542306050340375 -0.276587952634791  -1.10670110546513 1.26308514543407 1714053207.01158
-0.491904882634795 -0.237850133745949  -1.25908671344004 1.37253140278981 1714053207.03487
 -0.485997318860519 -0.0617715501472565   -1.47418978179524 1.55346214343856 1714053207.08247
 -0.487592133874758 -0.0563802417155868    -1.2881875225553 1.37853252190132 1714053207.09651
 -0.496745671114208 -0.0544475948833835   -1.32588053545204 1.41692624954508 1714053207.11247
 -0.510807178149569 -0.0349274318496246   -1.46186276650504 1.54893080763426 1714053207.13616
-0.531723811969859 0.0681306499999332   -1.6534779620675 1.73820636540316 1714053207.18239
  -0.52972262003338 -0.0204963152982354   -1.45811908171192 1.55149521738491 1714053207.19645
 -0.483623317971974 -0.0914902112883423   -1.59528001263752 1.66948503771929 1714053207.21294
 -0.491339913994176 -0.0986094524701721   -1.69306639190917 1.76567622813827 1714053207.23658
-0.515260209627878 0.0629576896743106   -1.8039496851615 1.87714975985113 1714053207.28355
-0.497779223220311 0.0244701588306478  -1.45905483969175 1.54182488271882 1714053207.29812
-0.517803469388152   0.06577515602753  -1.50624323692042 1.59411903345683 1714053207.31554
-0.498954999461267 0.0739949194091896  -1.55474195533135 1.63451946677099 1714053207.33746
-0.547137175107399  0.220636811815702  -1.87461794096139 1.96525624682559 1714053207.38482
-0.405948925321612   0.17718192141969  -1.49546709568297 1.55968259511934 1714053207.39964
-0.406979271000146  0.176421512450353  -1.49697150216466 1.56130725847675 1714053207.41771
-0.395623807022752  0.206240912346939  -1.51196716379214 1.57641942864027 1714053207.43699
-0.428344010540375  0.382499754200157  -1.75719168146603 1.84865011798945 1714053207.4852
-0.372396273363523  0.330975029769974  -1.37956445428259 1.46677249028821 1714053207.50171
-0.346388781851576   0.32691155504546  -1.25885653451607 1.34594804041935 1714053207.51783
-0.312738040658317  0.373294526521115  -1.23186955431937 1.32463447202028 1714053207.53603
-0.328866057793084  0.468656308491949  -1.45541915161332 1.56398098656617 1714053207.5864
-0.275512325996673  0.393582015627863  -1.13890120940932 1.23608648952887 1714053207.60303
 -0.22991199250907  0.369384156824241 -0.977911800019353 1.07033437216103 1714053207.61779
 -0.20723611978229  0.377552992729027 -0.909589833378667 1.00640286995164 1714053207.63603
  -0.243317226608 0.535669387848405 -1.16276189566128 1.30313475582685 1714053207.68416
  -0.3040407521636  0.512933681829284 -0.941117411203978 1.11411118053919 1714053207.70205
-0.282093053267603  0.513293268101952  -0.77399413082143 0.970625254321482 1714053207.71527
-0.269822127594123  0.535498808205541 -0.716593838734862 0.934381979621685 1714053207.73321
-0.138550568007363  0.777373035619546 -0.795440321872067 1.12081684590456 1714053207.78363
-0.135517671915683  0.610871414596431 -0.529709026137729 0.81982960238349 1714053207.80146
-0.0932509724268307   0.573942736513081  -0.373022905484502 0.690834348212922 1714053207.8165
-0.0766655140658412   0.574582767177509  -0.248227360649442 0.630586853620762 1714053207.83241
 0.233089267416965  0.950140174470239 -0.128520945395304 0.986719104473313 1714053207.88297
  0.0328558287957479    0.887196136217895 -0.00738053588655198 0.88783498574667 1714053207.90104
0.0301098592142421  0.890623129561478 0.0666096809220405 0.893617934088343 1714053207.91585
0.0150733168926037   0.87690329793295  0.137216951635343 0.887702140711582 1714053207.93042
-0.0783682435648931   0.980952359272484    0.57285788209757 1.13867258939654 1714053207.98194
-0.256605618710241  0.801662302422014  0.617147402922713 1.04373359034405 1714053207.99958
-0.188154466586776  0.670877835949002  0.628680285600588 0.938465809482161 1714053208.01303
-0.211538646868239  0.566242557885094   0.69982425048352 0.924734132085499 1714053208.02635
-0.486999788404485   0.30873703126452    1.0622517623393 1.20866296169486 1714053208.08209
-0.479257581631665  0.277937537941535  0.857757521927629 1.02111951845602 1714053208.10004
-0.447987213791924  0.242481083304744  0.788061335366979 0.938365753734693 1714053208.11318
-0.437707488475096  0.288879581883136   0.65636263460718 0.840149490510248 1714053208.12574
-0.334156814157857   0.41243758589167   1.21738170609165 1.3280752075959 1714053208.18054
-0.318699247902611  0.402503421518995  0.981902849030762 1.1080213986575 1714053208.19812
-0.291563528615715  0.357900611188384  0.936644581410447 1.04422469353747 1714053208.21108
-0.328754920108565  0.231317771903838   0.89260372645019 0.978942859193993 1714053208.22327
-0.248384263779123  0.319807995045717   1.65540895504884 1.70421556871312 1714053208.28077
-0.150233381382924  0.315030444099458   1.29241010391796 1.33870763286853 1714053208.29789
-0.125378867577506  0.248251061111713   1.14033010944429 1.17375517391121 1714053208.31052
-0.219975180209177  0.148981262707142   1.02463731212229 1.05852072154448 1714053208.32264
-0.0821237676174983   0.209070116814424    1.74854061279942 1.76290921534873 1714053208.38062
-0.134605826465026  0.256950798235805   1.33224434030989 1.36345789209645 1714053208.39625
-0.103174942011702  0.138420738008841   1.15014754483665 1.163032563716 1714053208.40882
 -0.222743691044295 -0.0700829687788598    1.05993533029112 1.08535214507193 1714053208.42043
-0.0195615937325575  0.0286546204979828    1.89094184727218 1.89126011246216 1714053208.48033
 0.292867302983068 -0.209389906071087   1.45186124412508 1.49583303283269 1714053208.49684
 0.314063245628164 -0.345837542498966   1.24804729554343 1.33261449037953 1714053208.5094
  0.32645807076228 -0.339570164397559   1.19857602155826 1.28781491215517 1714053208.52116
 0.283742508092113 -0.490667005128766   1.41725950177297 1.52639720131629 1714053208.5788
  0.59501201521831 -0.848097039407673   1.05315057101227 1.47730633645486 1714053208.59577
 0.629783876493043 -0.880977946467847  0.808988557049626 1.35174419129159 1714053208.61078
 0.710558488560623 -0.814391503188491    0.7437265320201 1.3119664784444 1714053208.62282
 0.723196963295094 -0.842225031870399  0.758254982627857 1.34436136165404 1714053208.67796
 0.529601075590165 -0.593315722682016  0.551447422966883 0.967778438664945 1714053208.69642
0.430878225630317 -0.41850995326314 0.499186049417496 0.781020702821438 1714053208.71252
 0.451157921101807 -0.377177936887017   0.50869360096631 0.777544754667744 1714053208.72447
0.482405070546152  -0.3404641585432 0.402486997598812 0.714581191032393 1714053208.7773
 0.377121356676007 -0.222919483217784  0.187442623796688 0.476495908560632 1714053208.79742
 0.279397714416251 -0.169990337761726  0.145347045227053 0.357890431989464 1714053208.81441
0.264995224145296 -0.18828501124774  0.15883780450811 0.361805420663281 1714053208.82636
  0.28837376741467 -0.195008821228345 -0.038710839289642 0.350266183306792 1714053208.8789
 0.119577844092321 -0.244403276783835 -0.217592448142152 0.348393880527397 1714053208.89982
0.0462107804732283 -0.191520781475074 -0.188742833785899 0.272836037345325 1714053208.91733
 0.052719850424883 -0.175084239875821 -0.169074970168791 0.249038589819517 1714053208.9295
0.0890012006479777 -0.179901315494997 -0.321729611311879 0.379203955449446 1714053208.97825
 0.129509988981285 -0.238264459470108 -0.395579919694377 0.479610532367592 1714053209.00002
 0.197648039605581 -0.176288921821301 -0.315289372402706 0.411764398493773 1714053209.01748
 0.189801475071461 -0.173984001839873  -0.27214402375185 0.374643033432315 1714053209.02951
 0.189219070149697 -0.209102388762359 -0.328050844053351 0.432602614160567 1714053209.07893
-0.0678060543101403  -0.234939344736023  -0.338147090030794 0.417297988495506 1714053209.10034
-0.0714328801279996  -0.209450138877206  -0.210339475518568 0.305310844878606 1714053209.11785
-0.0732518734591822   -0.20345827317189   -0.17418169633114 0.277669532401668 1714053209.13029
-0.0612195759261346  -0.214779916005398  -0.230318911007445 0.320819341005989 1714053209.17781
 0.118239248244902 -0.217495333574887 -0.200603376583693 0.318632161981728 1714053209.19828
   0.20058326878228  -0.192141662708772 -0.0404387163296872 0.280690854931664 1714053209.21625
  0.221133042900611   -0.14144179154875 -0.0154731796700428 0.262954411159244 1714053209.2296
  0.231369503545464  -0.137011560366904 -0.0583341705603972 0.275148851169722 1714053209.27793
   0.1738772432351  -0.05999909099433 -0.166646162817999 0.248201793339909 1714053209.29988
  0.163816608089687 -0.0516947176968997  -0.144600798237297 0.22453867322721 1714053209.31727
  0.157355786049324 -0.0601826234204698  -0.131615273896966 0.213788147211075 1714053209.33077
 0.163839945853235 -0.106718361106359 -0.325937552979503 0.380088969711941 1714053209.37806
-0.188544493280927 -0.258834296195693 -0.528019950195318 0.617534846496898 1714053209.39775
-0.244546266836646 -0.248138851205526 -0.428790677788967 0.552482770283436 1714053209.41643
-0.243445794263922 -0.243947391216839 -0.399745111221296 0.527799524792908 1714053209.43108
-0.244055083722985 -0.214232937620491  -0.31262449133441 0.450769018494657 1714053209.47798
  0.132915770620126 -0.0989502178762578 -0.0651864442840307 0.178064651786074 1714053209.49825
 0.145622867772293 0.0327762594323827 0.0765090149423589 0.167731726778376 1714053209.51664
0.175874290099127 0.120190478717114 0.107537504691088 0.238624877176095 1714053209.52971
0.173592458523926 0.191465920402086 0.141943632487594 0.294858500192163 1714053209.57764
 0.219219646720467  0.411908772414453 0.0944489466536958 0.476074252427309 1714053209.59943
0.146157303041255 0.420629589302816 0.128184852360814 0.463381662352011 1714053209.61706
0.120650241434926  0.37768499546508 0.151685131616859 0.424512444707322 1714053209.62942
  0.12299915737505   0.32428161812403 0.0865665314951899 0.357464858333262 1714053209.67748
  -0.265996917731371 -0.00147735464631638  0.00726007535429228 0.266100078003541 1714053209.6977
-0.458803938342721 0.0513706418352731 0.0815763194985359 0.468822666457464 1714053209.71531
  -0.48124260540097 0.00847663802102365  0.0937722715969122 0.490366737825577 1714053209.72922
 -0.477457008117185 -0.0439702621777348 -0.0429527467516579 0.48139746261245 1714053209.77857
-0.688084763066769 -0.150809001654126 -0.144720551757626 0.719130053777199 1714053209.79815
 -0.633471469166909  -0.113503563164421 -0.0353507594290099 0.644529935140106 1714053209.81614
 -0.632214658145909  -0.101192525256875 -0.0209193325798143 0.640603558855238 1714053209.8295
 -0.630581430622232  -0.105593428197774 -0.0957441991586006 0.646490420962802 1714053209.88031
 -0.912064090668211 -0.0770383956829112  -0.184889719411796 0.933798708630505 1714053209.89832
 -0.972124039874169 -0.0408159054634808  -0.169617846190735 0.987654444016966 1714053209.91446
 -0.961696571116578 -0.0197723726612223   -0.16209893653027 0.975462611709072 1714053209.92972
-0.918072846536943 0.0488151783816898  -0.31083981305891 0.970495781841106 1714053209.98153
-0.711646384508131  0.151321024460321 -0.310139258442453 0.790901377324917 1714053209.99924
-0.703084182234393  0.174114425197283 -0.244642510968075 0.76452152261578 1714053210.01576
 -0.70979327592584  0.178674622752986 -0.203200772851883 0.75961942408884 1714053210.0303
-0.770993192335952  0.117546652208047 -0.203808134708872 0.806092720378501 1714053210.08247
-0.818633671501612  0.187318301297161 -0.203024384589794 0.863983874186971 1714053210.09928
-0.910979517258539  0.206348104538794 -0.184925327489294 0.952187270371945 1714053210.11519
 -0.92366601793984  0.188979103389772 -0.187521912149205 0.961268163287923 1714053210.13058
 -1.04321388516213  0.104374187784084 -0.290319690985058 1.08787623572 1714053210.18365
-0.904949280881656  0.143673561238364 -0.305522720358743 0.965877541835686 1714053210.19973
-0.913962257470752  0.140544985249483 -0.280951985663677 0.966443955544331 1714053210.21561
-0.907440244835288  0.144469290139633  -0.28784477546695 0.962898638748542 1714053210.2312
-0.919912755108787  0.126887209677256 -0.359366357731697 0.995732905984765 1714053210.28408
-0.593619365793695 0.0953011973521298 -0.335234858194178 0.688366675406741 1714053210.30016
-0.572139057239076 0.0955622845128633 -0.325581533399537 0.665190638787506 1714053210.31577
-0.556620641301282  0.116989311368557 -0.346590726313668 0.666061685479488 1714053210.33139
-0.627596119689191 0.0484958007198145 -0.438076431817816 0.766902661522709 1714053210.38401
-0.498232386012345 0.0966504249891029 -0.328512622553481 0.604563775212421 1714053210.40009
-0.475011160897131 0.0593574811106759 -0.189469834762108 0.514837578101506 1714053210.41531
-0.466543357332673 0.0710499786856692  -0.16358911436981 0.499471923217687 1714053210.43061
   -0.59339370723399    -0.02180486748892 -0.00771679006359369 0.593844333878831 1714053210.48335
-0.691068882081445  0.140285656404666 0.0251170401125308 0.70561117542043 1714053210.49817
-0.750954698573541  0.154275192744862 0.0634422034662899 0.769258544045368 1714053210.51392
-0.740250501888856   0.16817563639265 0.0597507557215667 0.761461754149264 1714053210.52873
-0.855834072324973 0.0697195588226958  0.131066507861343 0.868614532297121 1714053210.58441
-0.693708470048915 0.0853340936624694  0.106890131630376 0.707063539718151 1714053210.59868
-0.689255559810039 0.0776110007109216  0.123241748475285 0.704475139893273 1714053210.61427
-0.659639324091184  0.126125172946852  0.117640122227236 0.681814340928663 1714053210.62876
-0.624628261173479  0.117355592104054  0.411764456645541 0.757286450038091 1714053210.68537
 -0.49350407926172 0.0976162098246707  0.306758679448431 0.589216503575245 1714053210.69893
-0.534459035386067 0.0924886167045147   0.18914510304292 0.574435788170303 1714053210.71342
-0.521426689504176  0.123339385832539  0.165949533627823 0.560925703044641 1714053210.72912
   -0.8307594995454 -0.0431050203745536  0.0807897279419471 0.835790864395722 1714053210.78402
-0.790855639334276 0.0495040503223064 0.0618912473400567 0.794816846677552 1714053210.79874
  -0.85604857607052   0.151997067811503 0.00946849083634405 0.869489462578114 1714053210.81307
 -0.836942246543058   0.144009805994608 0.00679796051255211 0.849268721040799 1714053210.82769
   -1.1172230759542 -0.0906368550331157   0.159643395355364 1.13220512921265 1714053210.88406
-0.956037467581778 -0.041206207129643  0.175585245337264 0.972900698584566 1714053210.89829
    -0.980992639863 -0.0119034698666593   0.057773316709467 0.982764472385859 1714053210.91332
 -0.93620418005001 0.0263606566073324  0.056998824287065 0.938308060782806 1714053210.92758
-0.962882055832346 -0.023287347069075   0.22393294307913 0.988852929900863 1714053210.98487
  -0.672353215808378 -0.00517568737645083    0.144544520176057 0.68773450753951 1714053210.99919
-0.654801646028693 -0.010150609044219 0.0570097331802672 0.65735708726927 1714053211.01359
-0.619033132556825 0.0712437501429628 0.0389285901030765 0.624334146323074 1714053211.02862
 -0.814166717156509 -0.0658792973979684  0.0954516576276649 0.822385885150594 1714053211.08459
-0.599334064143691 -0.048345378277453 0.0159563595314198 0.601492478301499 1714053211.09915
  -0.61173584355337 0.00826423546288791 -0.0863579104708583 0.617856559871814 1714053211.11323
-0.613683382148238   0.08964878459311 -0.117926685756695 0.631308879485692 1714053211.12869
-0.317104185387912  0.129077793218317   0.12659233622717 0.365022959119142 1714053211.18467
   0.11185286700436 -0.0150974597703778  0.0286730340209735 0.116452307957297 1714053211.19949
 0.276707619337694 -0.176440948170042 -0.156958422194829 0.363778038216394 1714053211.21354
   0.32676050074776 -0.0976478603941073  -0.153849775605178 0.374135380500478 1714053211.22913
 0.861258035370606 0.0485941668616011 0.0783732859304201 0.86618079434431 1714053211.28479
   0.99811165552669 -0.0311003386432825  0.0351476589772809 0.999214424382245 1714053211.29995
   1.12783238307589  -0.187579194840999 -0.0394460919303553 1.14400517167555 1714053211.31376
   1.16469825217543  -0.155391774498051 -0.0178976384940488 1.17515486114206 1714053211.32909
  1.72676656989803 0.0711397083278086  0.240820414095113 1.7449292584123 1714053211.38413
   1.66286501488805 -0.0246100874191804   0.162961046532131 1.67101227309325 1714053211.39798
  1.78206778840665 -0.258777235203376 0.0984063362205423 1.80344533239697 1714053211.41287
  1.78315485635855 -0.267309640121788 0.0877828220510568 1.80521508671526 1714053211.42773
  2.10770061431124 -0.108739420831731  0.260917070250798 2.12657091552552 1714053211.48374
  2.17403395554561 -0.179251320887398  0.195298344682125 2.1901360960773 1714053211.49892
  2.17989021904924 -0.230144231138357  0.214157552036037 2.20244209715644 1714053211.51499
  2.17975148849011 -0.229398001499059  0.233388883066785 2.20418020257096 1714053211.52885
  2.01346397662445 -0.388429562830659  0.312800092428055 2.07430918820415 1714053211.5816
  1.35102050342687 -0.231767026188096  0.133553599657653 1.37724686207281 1714053211.59768
   1.00041262274646 -0.0811058024948899      0.161072290377 1.01653718558452 1714053211.61353
  0.995669082547673 -0.0941061507585806    0.17840348231055 1.01589403583861 1714053211.62832
 0.950186793054708 -0.137103157163151  0.139017198767515 0.970040204812595 1714053211.68173
 0.746505738466765 -0.301994184011679 0.0345453978025432 0.806017797105018 1714053211.69798
 0.720313284935411 -0.418789142490145 0.0655926375624941 0.835785838851364 1714053211.71413
 0.715085318556132 -0.429708273829632 0.0975608380136887 0.839949004717608 1714053211.72915
  0.809837455813609  -0.375258902833137 -0.0881851267302108 0.89690164765743 1714053211.7806
   1.28544095148978  -0.226617412906879 -0.0997578862043405 1.30907048223521 1714053211.79832
  1.28968707389422 -0.221499917657051 -0.079608157904795 1.31098910022048 1714053211.81551
  1.28621632535526 -0.224245460438511 -0.053116457730767 1.30669806008103 1714053211.82967
  1.30415221661595 -0.230419684836207 -0.109247335474085 1.32884958350164 1714053211.87874
  1.36337462867004 -0.200072372782621 -0.138239312027694 1.3848932954715 1714053211.89746
   1.42172621319587  -0.234892274599567 -0.0764623684666255 1.44302678414032 1714053211.91729
    1.4138199275084  -0.236916598166042 -0.0564787931326767 1.43464494422144 1714053211.93055
  1.41851292480653  -0.23678604639432 -0.134587351613518 1.44442386605337 1714053211.97724
  1.28354637343069 -0.227127162764414 -0.232146591046061 1.32399776455506 1714053211.99846
  1.17733529842925 -0.179601983875502 -0.141750026555764 1.19936164169447 1714053212.01782
  1.18116667448388 -0.162567563553911   -0.1021083774633 1.19666580396506 1714053212.03043
   1.18333402602886  -0.124272834438315 -0.0651995245573169 1.19162667498655 1714053212.07308
  1.37296745037967 0.0223624979287602  0.123644823791045 1.37870509666353 1714053212.10114
 1.29221264119871 0.206278520045592 0.234835984180095 1.32947819740369 1714053212.11987
 1.28375908077472  0.19729318369053 0.255932770739876 1.32380646657315 1714053212.13013
 1.27832465946991 0.185517339432497 0.223378864840331 1.31088852901241 1714053212.17206
0.977462367022428 0.160201798181034 0.155610274202858 1.00265240862575 1714053212.20594
0.929984930619752 0.167991095672609 0.165115703907486 0.959351955792019 1714053212.22061
0.886600679922211 0.106835757791807 0.168814703086813 0.908830594093182 1714053212.2292
 0.868316402264866  0.106543326193624 0.0639457281011427 0.877162419932014 1714053212.27234
 0.592356515840826  -0.01465697319935 -0.066214587974315 0.596225997741677 1714053212.30847
   0.568058542621298 -0.00851412837150381  -0.0190783777895998 0.568442594046261 1714053212.32167
   0.549330944812827  -0.0332825281256219 -0.00395151562834102 0.550352458051335 1714053212.33068
  0.527328114378392 -0.0248368643198655   0.014130886037922 0.528101781840708 1714053212.37157
 -0.047289586755206 -0.0343478090376709 -0.0927765694264984 0.109652035255696 1714053212.40777
-0.0522353637631276 -0.0459333000006634 -0.0357284401238602 0.0781979712658932 1714053212.42111
-0.0728257162440248 -0.0737795377359119 -0.0203818072013899 0.105652369589019 1714053212.42931
-0.0976659527313146 -0.0534378541177567 -0.0367081161426512 0.117225118325248 1714053212.47383
  -0.74824782469451 -0.0114798389307962  -0.145884102528686 0.762422956916004 1714053212.50798
-0.771621087143394 0.0536985055106358 -0.105530381089391 0.780653119478364 1714053212.52213
 -0.778760928835969  0.0556773103977425 -0.0953910215360044 0.786554508069384 1714053212.53096
-0.795733991651992 0.0845531060091954 -0.136287644246613 0.811736493685301 1714053212.57497
 -1.11711411466886  0.147936552372033 -0.223400700301789 1.14879808565972 1714053212.60779
 -1.05404658624398 0.0310671926653278 -0.150340649731173 1.06516744570715 1714053212.62138
 -1.05691452052998 0.0286988588443116 -0.163974711115876 1.06994375277003 1714053212.6309
  -1.04245469656799 -0.0202553788360951  -0.288906508025765 1.08193763459273 1714053212.67907
  -1.23388021003745 -0.0695809809752124  -0.356990139665668 1.28636847188278 1714053212.70159
  -1.29456031101285 -0.0669540253624928  -0.243252197201375 1.31891655225235 1714053212.71911
  -1.29182788454553 -0.0501711245368034  -0.229177073981907 1.3129579415448 1714053212.73123
  -1.28672045027267 -0.0286293317200062  -0.291692913989632 1.31967947315111 1714053212.78037
  -1.30887017762767 -0.0225037937145708  -0.253784927357085 1.33343704462126 1714053212.80131
   -1.22491934908991 -0.00327453292430243   -0.161949526385021 1.2355831754427 1714053212.81824
  -1.22724420183332 0.00428004870085248  -0.147365878710424 1.2360676971584 1714053212.8312
  -1.2124150256975 0.0499413186898845 -0.164057218226604 1.22448319739464 1714053212.8826
-1.01407475328849 0.111950957780959 -0.14304315272796 1.03021452413929 1714053212.9006
-0.981068994974045  0.117952506302041 -0.054136890729656 0.989616071807745 1714053212.91646
 -0.986007787226489   0.111279314743159 -0.0378370002574456 0.992988459625522 1714053212.93123
  -1.07601337592756   0.030978297654326 -0.0790790880752497 1.07935996881087 1714053212.98383
 -1.03831056284721  0.180232606933772 -0.145448733437765 1.06382703085647 1714053213.00008
 -1.05948771178921  0.198675534250338 -0.115445271333138 1.08411890031268 1714053213.0159
 -1.07658110695874  0.174932146560364 -0.102893857514429 1.09554337279495 1714053213.03069
  -1.27680423923973 -0.0282348367776814  -0.117324475890078 1.28249417308278 1714053213.08438
 -1.06081233212046 0.0487938351561473 -0.152545797244149 1.07283449915863 1714053213.10055
 -1.01348415529711 0.0461933151127774 -0.120374162428505 1.02165253113756 1714053213.11552
 -1.01130916271315 0.0587818204544138 -0.132868233004141 1.02169246466104 1714053213.13114
  -1.20265960500407 -0.0815126562354725  -0.264680062410565 1.23413531432852 1714053213.18478
 -1.25263974456387  0.163020682914046 -0.207118971077912 1.28007044372534 1714053213.19957
-1.33464252782779 0.172971131362029 -0.13490872561781 1.35254946438903 1714053213.21561
 -1.34128591342941  0.157926449068279 -0.113123793695332 1.35528065638801 1714053213.23112
  -1.46425066079345  0.0940604201000622 -0.0646745891188732 1.46869335218116 1714053213.28444
   -1.2052880457169   0.157066360414955 -0.0778549781717478 1.21796983228164 1714053213.29889
  -1.24332821910961   0.160003925597678 -0.0925738041924652 1.2569949187899 1714053213.31445
   -1.2397658388917   0.156652642751489 -0.0960131509087548 1.25330679041936 1714053213.32933
  -1.22753197974802   0.196335459621117 -0.0231634275060629 1.24334987770239 1714053213.38671
-0.876571311914767  0.192948815373489 0.0111252916040141 0.897624800425702 1714053213.40038
   -0.88492904898776    0.172755426027878 -0.00481054749376163 0.901646826829466 1714053213.4147
 -0.871192498893357   0.165062445576359 0.00644448005251261 0.886715011934978 1714053213.43033
-0.880883199754278  0.124873258572998 0.0255040087853603 0.890055614430973 1714053213.48616
-0.594404652438063 0.0897604914764865 0.0334677743849792 0.602074686888927 1714053213.50068
-0.527880827927345 0.0202101412180794 -0.017399438422347 0.528554026338582 1714053213.51433
   -0.50459504934503    0.038901996493317 -0.00956553138216736 0.50618280151078 1714053213.53017
-0.502510958892307 0.0582001222808095 0.0829360615551828 0.512623554225371 1714053213.58585
-0.385587355583762 0.0704899742216089  0.054450241655308 0.39574142324018 1714053213.6003
-0.370109008078499 0.0775485943489527 0.0102261460218952 0.378284332756209 1714053213.61364
 -0.334184017746926   0.117741946583796 0.00786476656625485 0.354406515538246 1714053213.62938
0.0486153979241737  0.214029192603249   0.22242448175065 0.312481363098297 1714053213.68754
 0.239390620220325 0.0659214698897203   0.14465696832346 0.287365877804634 1714053213.70079
 0.294671991680552 -0.032063068257272 0.0972527555114552 0.311957884147243 1714053213.71434
 0.329078547342596 0.0225651793140967 0.0902888084909771 0.341985301697764 1714053213.72996
 0.89153516169149 0.149569265897009 0.302598208540849 0.953295119910604 1714053213.78563
   0.882163462831166 0.000843459961322051     0.16278403139448 0.897057259853584 1714053213.8
 0.948362677075532 -0.135348243215263 0.0898003310122569 0.962172029140964 1714053213.81401
 0.961603369873153  -0.12953615972626 0.0901207948476964 0.974465194500045 1714053213.82872
   1.17229153780667 -0.0451503247623154   0.236446890937967 1.19675107423119 1714053213.88589
  0.905157047780465 -0.0801892823987004    0.15734575696962 0.922224099335193 1714053213.90001
 0.927434783537327 -0.171114701888152  0.152074995940831 0.955270811501955 1714053213.91525
  0.93819527163959 -0.166208920689724  0.158259695375466 0.965858118060858 1714053213.92911
   1.12084296418583 -0.0391438705769685   0.282103868629807 1.15646175278931 1714053213.98573
  0.818646399200255 0.00438764315439409   0.143700517749343 0.831174480561947 1714053214.00092
  0.807529872571511 -0.0666501670518202   0.139486135457839 0.822194090132226 1714053214.01588
   0.79796170586954 -0.0901813283260693   0.148464442281216 0.816650014776681 1714053214.03017
 1.18552294446443 0.125080844049245 0.370997189088299 1.24849861181785 1714053214.08463
  1.35251268560882 -0.129939037827476  0.274570529754823 1.38620478072115 1714053214.10022
  1.37840759869921 -0.247371713655221  0.278628586468237 1.42787750247202 1714053214.115
  1.36875864861984 -0.271143782564807  0.288950130873179 1.42496012825861 1714053214.12943
  1.45162835620969 -0.226838667359402  0.284083137289951 1.4964571141379 1714053214.18432
   1.13844062569518 -0.0810939941594526    0.15596488508228 1.15193243703817 1714053214.20065
   1.04547101482706 -0.0267022959889297   0.148607482661123 1.05631758451589 1714053214.21534
   1.01556912419017 -0.0663060689798146   0.165333250778903 1.0310733361915 1714053214.22977
 0.783868613189539 -0.274277216556923  0.149373841996566 0.843795318154064 1714053214.28316
 0.589960660077441 -0.317370426190312   0.08336604173611 0.675075895565807 1714053214.30099
 0.578826234958223 -0.311012845548522   0.12260166455723 0.668430975138274 1714053214.31623
 0.582405926130954 -0.297555562779292  0.134838648084747 0.66777049706518 1714053214.33048
 0.616721685748028 -0.253106350294609 0.0187353865036822 0.666902899183074 1714053214.38096
    0.65304100864712   -0.165816230041946 -0.00494852903426915 0.673781915058407 1714053214.40043
 0.641634266242369 -0.154799418859673 0.0951505005093894 0.666866560447338 1714053214.41605
  0.63661195671263 -0.144889848414523   0.12178596409851 0.664153350254646 1714053214.42996
 0.675303721592388 -0.117419849436111 0.0871511735219124 0.690954314325032 1714053214.48113
  0.723907586876234 -0.0567811391931311  0.0562354527397032 0.728305374310722 1714053214.50001
   0.72813855220141 -0.0579998924486568   0.100850153472666 0.737374051741368 1714053214.51664
 0.718581242008649 -0.066264945789581  0.124328897998023 0.732262056428293 1714053214.52979
   0.75044922384536 -0.0928494481870993  0.0204238197377059 0.756447083417889 1714053214.58037
   0.969965928825063   -0.126695773990091 -0.00719784603977996 0.978231839195611 1714053214.60103
  0.975441619354497 -0.0925012054461825  0.0833827931107202 0.98335930156015 1714053214.61876
  0.971924995844979 -0.0935081007927995  0.0987072574244227 0.98138936469191 1714053214.63122
  0.975917159527718 -0.0923980099233935   0.111124918011304 0.986559902844967 1714053214.67811
 0.746616855820352 0.0281161065981163 0.0798717500348118 0.751403181586908 1714053214.70181
0.661894015711425 0.122711788371134  0.14600274388584 0.688824122880459 1714053214.71923
0.655403182086445 0.118857409407046 0.159770714008582 0.684986931200007 1714053214.7301
0.666698275157928 0.106678032184782 0.120212740560738 0.685797270075128 1714053214.77515
   0.910665641499983 -0.00447739651050397   0.0619032525218367 0.912778160541141 1714053214.80728
 0.888445449849791 0.0456226534774456 0.0871744965932151 0.893877025504851 1714053214.82153
 0.875173111451714 0.0208083772902951   0.10529799593246 0.881730475554135 1714053214.83049
 0.869665055579993 0.0241951721516833 0.0854952097033972 0.874192282129412 1714053214.8746
  0.532379621130309  0.0451991628382286 -0.0305222807657109 0.53516598821232 1714053214.90824
  0.50323105977484  0.119814659992343 0.0230997159386283 0.517813334269826 1714053214.92147
 0.473656290207163 0.0644750174093629 0.0511205589284337 0.480750060497038 1714053214.931
 0.463019184226233 0.0587082082843663 0.0522845187587456 0.469645706446168 1714053214.97376
 0.166755645268298 0.0138868574211622 0.0264769042538414 0.169414628933718 1714053215.00761
 0.168489466538074 0.0172888676301175 0.0970287957004931 0.195197829069138 1714053215.02162
   0.154989383889906 -0.00550126378107572   0.0966073115653347 0.182715477367527 1714053215.03089
   0.148247226083408 -0.00316981866071448   0.0768526156490511 0.167013808781991 1714053215.07341
 -0.168920930341334  0.0790196516806531 -0.0565587629400585 0.194877601905461 1714053215.10799
 -0.167348061062919  0.0773291849361381 -0.0108269154654607 0.184668347268562 1714053215.12142
  -0.185224048209995   0.0397237356284581 -0.00578027257599175 0.189523968823553 1714053215.13045
  -0.19303082599496  0.0262114879665908 -0.0353889275360869 0.197990701998538 1714053215.17715
